# .PCD v0.7 - Point Cloud Data file format
VERSION 0.7
FIELDS x y z intensity ring
SIZE 4 4 4 4 2
TYPE F F F F U
COUNT 1 1 1 1 1
WIDTH 1258
HEIGHT 1
VIEWPOINT 0 0 0 1 0 0 0
POINTS 1258
DATA ascii
-31.768887 -33.818604 0 19 20
-56.535236 -49.475441 -0.87461793 33 18
-8.4350481 -8.9792738 -1.9166738 9 3
-13.257738 -12.79838 -2.3455586 22 4
-26.811281 -31.492012 0.24038076 36 21
-14.450673 -15.383024 -2.2734563 23 5
-18.815727 -16.466125 -2.3340116 15 6
-31.275673 -33.293568 1.0629394 42 24
-14.635464 -15.579738 -1.4947418 7 8
-21.598316 -20.849972 -2.4506981 12 7
-24.145849 -28.361248 -2.3871515 16 9
-34.915413 -30.555378 -2.7020693 14 10
-30.675749 -32.654938 -2.087014 49 12
-24.741404 -23.884155 -1.8022411 17 11
-24.170149 -28.389791 -1.5190331 23 13
-56.718216 -49.635567 -2.6319804 43 14
-31.741123 -33.789047 -1.0787584 29 16
-2.9676616 -2.8448911 -1.9169966 7 0
-21.603971 -20.710228 -0.87097055 4 15
-4.8706508 -5.1487679 -1.9840747 28 1
-6.3084702 -6.0474925 -1.7477975 63 2
-31.416695 -33.210606 0 19 20
-57.003468 -49.534897 -0.87918121 33 18
-9.1752653 -9.6991787 -2.0771654 17 3
-13.27369 -12.724565 -2.340508 27 4
-27.241287 -31.771732 0.24324022 35 21
-24.962227 -23.929552 -0.200976 9 19
-14.476955 -15.303598 -2.2691724 23 5
-19.970364 -17.353855 -2.4697099 21 6
-31.36972 -33.16095 1.0621951 42 24
-66.193588 -57.520927 1.020923 63 22
-22.019558 -23.276888 -2.2405779 20 8
-23.432272 -22.462891 -2.6498783 13 7
-27.022018 -31.515995 1.2081881 28 25
-14.776511 -17.233963 -1.4549062 5 9
-34.925411 -30.349497 -2.6946275 14 10
-32.08836 -33.920624 -2.175051 50 12
-21.661356 -20.765238 -1.5725911 31 11
-26.81074 -31.269579 -1.6781172 39 13
-56.915276 -49.45826 -2.6330974 43 14
-31.878119 -33.69838 -1.0794097 29 16
-2.9828258 -2.839514 -1.9203775 7 0
-26.587706 -30.791288 -0.71010357 31 17
-4.8832798 -5.1261568 -1.9819181 30 1
-6.3494282 -6.0443659 -1.7532887 47 2
-31.755905 -33.335331 0 19 20
-68.640923 -59.228352 -1.0554738 61 18
-9.3753624 -9.8416595 -2.1146748 11 3
-13.27779 -12.639852 -2.333437 27 4
-27.281445 -31.594709 0.24261256 35 21
-14.453477 -15.172341 -2.2571776 19 5
-20.027805 -17.281439 -2.4693382 15 6
-31.548717 -33.11784 1.0643352 42 24
-14.749379 -15.482962 -1.4952998 7 8
-23.594278 -22.460678 -2.6593168 8 7
-27.236389 -31.54253 1.2128426 28 25
-29.464451 -34.122852 -2.8893461 30 9
-51.571686 -44.499779 -3.9669418 29 10
-31.181334 -32.732182 -2.1058125 49 12
-21.713455 -20.670219 -1.5711256 46 11
-26.804796 -31.0427 -1.6709526 39 13
-70.84343 -61.128838 -3.2675703 63 14
-32.0452 -33.639015 -1.0810847 29 16
-2.9821808 -2.8191237 -1.9136157 6 0
-26.789494 -30.80694 -0.71261662 31 17
-24.868584 -23.508841 -0.99594349 10 15
-4.9064755 -5.1146407 -1.9840747 29 1
-6.3647861 -6.0167775 -1.7517197 41 2
-31.800068 -33.149235 0 19 20
-8.4407482 -7.2320447 -0.12940228 0 18
-8.6626844 -9.0302124 -1.9468044 6 3
-13.287226 -12.560718 -2.3273761 25 4
-26.682884 -30.684343 0.23633568 36 21
-14.495335 -15.110322 -2.2554641 22 5
-8.4108295 -7.2064109 -1.0339099 7 6
-31.603218 -32.944035 1.062288 42 24
-23.258823 -24.245615 -2.3493979 21 8
-31.323053 -32.651981 -2.1076739 49 12
-47.161701 -44.583035 -3.4012096 63 11
-13.543038 -15.574 -0.84084964 8 13
-32.159653 -33.524075 -1.0809916 29 16
-2.9946468 -2.8111768 -1.915306 5 0
-47.309456 -44.410992 -1.8884411 47 15
-4.9269772 -5.1002522 -1.985153 36 1
-6.4229274 -6.0294204 -1.7619178 16 2
-8.8040009 -9.1136246 -1.9714007 7 3
-13.31942 -12.503392 -2.3253555 21 4
-14.536943 -15.048186 -2.2537503 22 5
-8.4147015 -7.1589394 -1.0313075 7 6
-32.101452 -33.230415 1.0751294 43 24
-23.423723 -24.247501 -2.3574898 21 8
-21.832098 -20.494532 -2.4445143 16 7
-30.785521 -35.153633 1.3599243 30 25
-13.467655 -15.378562 -1.3101064 10 9
-31.114819 -32.209084 -2.0860834 49 12
-21.924215 -20.581007 -1.5759405 15 11
-32.309826 -33.446117 -1.0821083 29 16
-3.0049298 -2.8001826 -1.915306 4 0
-13.570776 -15.382201 -0.35805357 28 17
-47.603535 -44.35997 -1.8936774 47 15
-4.9483223 -5.0849209 -1.9862313 32 1
-6.4507213 -6.0111885 -1.7634869 30 2
-32.574871 -33.474098 0 19 20
-9.2783823 -9.5345116 -2.0697863 8 3
-13.341931 -12.432852 -2.3213151 19 4
-13.56203 -15.372288 0.11914425 5 21
-14.569806 -14.972005 -2.2503233 22 5
-8.4469681 -7.1331911 -1.032051 8 6
-23.612614 -24.264439 -2.3675349 21 8
-23.966228 -22.333241 -2.6742876 8 7
-30.911507 -35.037571 1.359808 30 25
-13.547695 -15.35604 -1.3124088 5 9
-8.4754429 -7.1572371 -0.64604086 17 10
-31.611637 -32.484276 -2.1113963 49 12
-47.765915 -44.511288 -3.4217253 63 11
-8.4785233 -7.1598382 -0.38752401 15 14
-32.465656 -33.36187 -1.0832249 29 16
-3.01952 -2.7951286 -1.9186871 4 0
-51.09531 -47.298229 -2.0263302 48 15
-4.9624624 -5.065732 -1.985153 33 1
-7.4722991 -6.9170051 -2.0364821 32 2
-32.626915 -33.305885 0 19 20
-8.497633 -7.1278358 -0.12912291 14 18
-9.0969772 -9.2862864 -2.0224383 9 3
-13.386 -12.391236 -2.3218203 21 4
-27.746473 -31.240629 0.24284501 35 21
-58.956383 -54.575115 -0.4669292 63 19
-14.605462 -14.909403 -2.2481813 22 5
-8.4858332 -7.1179385 -1.0339099 7 6
-8.5037613 -7.1329761 0.12921603 17 22
-23.987494 -22.204895 -2.6684294 13 7
-30.002657 -33.780937 1.3148922 29 25
-20.588671 -23.181435 -1.987033 14 9
-31.358488 -32.011063 -2.0873861 49 12
-47.895664 -44.336361 -3.420469 63 11
-27.607166 -31.083778 -1.6937487 39 13
-32.36903 -33.042633 -1.076339 29 16
-3.0319276 -2.7870243 -1.9203775 4 0
-27.576962 -30.832323 -0.72204095 32 17
-51.63689 -47.465931 -2.0412247 48 15
-4.98282 -5.0511212 -1.9862313 30 1
-7.5108376 -6.9041514 -2.0404043 28 2
-32.98175 -33.433842 0 19 20
-9.5790033 -9.7103052 -2.1220536 8 3
-13.361983 -12.282672 -2.3102036 19 4
-27.788694 -31.06905 0.24226382 35 21
-52.099602 -47.89127 -0.41129756 38 19
-14.665794 -14.866823 -2.2494667 22 5
-20.424282 -17.010836 -2.481235 15 6
-25.26243 -25.608709 -2.5154185 22 8
-30.096405 -33.649181 1.3138449 29 25
-20.669466 -23.109423 -1.987033 14 9
-31.658041 -32.091988 -2.0998566 49 12
-59.948715 -55.106373 -4.2674742 63 11
-27.702183 -30.972326 -1.6929345 39 13
-32.56842 -33.014847 -1.0791305 29 16
-3.0384758 -2.7745104 -1.9186871 3 0
-27.526512 -30.571295 -0.7180618 32 17
-51.551891 -47.073357 -2.031683 48 15
-4.9968286 -5.031836 -1.985153 26 1
-7.5365872 -6.8818512 -2.041189 31 2
-9.6055803 -9.6728764 -2.1208239 8 3
-13.446591 -12.278428 -2.3177795 22 4
-27.912981 -31.000513 0.24244982 35 21
-52.072037 -47.548313 -0.40983295 38 19
-14.729025 -14.832216 -2.2516084 22 5
-20.443754 -16.912548 -2.4767737 21 6
-25.352835 -25.530457 -2.5159764 23 8
-24.29117 -22.180891 -2.6853533 13 7
-30.18642 -33.525421 1.312914 29 25
-20.828787 -23.132717 -1.9949638 14 9
-35.232887 -29.147184 -2.6629999 14 10
-50.608318 -50.962875 -3.3455877 63 12
-52.337818 -47.791008 -3.7143877 63 11
-27.662998 -30.722879 -1.6843047 39 13
-32.753803 -32.983276 -1.081643 29 16
-3.0535135 -2.7687571 -1.922068 1 0
-27.611572 -30.451324 -0.71750337 32 17
-51.659615 -46.842079 -2.0294719 48 15
-5.017086 -5.0170865 -1.9862313 27 1
-7.5896211 -6.8818483 -2.0490336 26 2
-9.4743929 -9.4743938 -2.0845442 13 3
-13.465855 -12.210092 -2.3137391 18 4
-52.341408 -47.460293 -0.41064662 38 19
-14.797583 -14.797585 -2.2541788 22 5
-20.514978 -16.851194 -2.4782608 21 6
-23.892954 -21.664808 -2.6329544 12 7
-30.284464 -33.399113 1.3120995 29 25
-49.297237 -40.49321 -3.7153163 27 10
-50.74918 -50.749184 -3.3431685 63 12
-50.057102 -45.389008 -3.5412605 63 11
-30.454731 -33.586891 -1.8471338 39 13
-32.848946 -32.848949 -1.0809916 29 16
-3.074419 -2.7672479 -1.9288298 1 0
-27.919901 -30.565477 -0.72259945 32 17
-51.979553 -46.786175 -2.0352902 48 15
-5.0354419 -4.9986649 -1.9862313 33 1
-7.6147943 -6.8539853 -2.0490336 30 2
-9.5202761 -9.4507437 -2.0870037 21 3
-13.563604 -12.208439 -2.3228304 21 4
-28.139498 -30.805883 0.24249631 35 21
-52.571499 -47.318977 -0.41108832 38 19
-14.829142 -14.720835 -2.2507517 22 5
-20.613646 -16.806089 -2.4827223 18 6
-24.382315 -24.204237 -2.4024131 21 8
-24.671515 -22.206535 -2.7097626 26 7
-30.347351 -33.222942 1.3095396 29 25
-14.338668 -15.697341 -1.3625516 22 9
-49.454605 -40.31982 -3.7160139 27 10
-50.446426 -45.406227 2.7651644 63 26
-48.049843 -43.249088 -3.3880208 63 11
-31.046642 -33.988499 -1.875466 39 13
-0.62698531 -0.56058955 -0.39218977 5 0
-28.037348 -30.490385 -0.72301829 32 17
-52.861691 -47.263805 -2.0636826 49 15
-5.0574751 -4.9873481 -1.9883879 29 1
-7.660872 -6.8496099 -2.0553093 25 2
-9.5037203 -9.3719416 -2.0765502 16 3
-13.4147 -11.994125 -2.2905056 13 4
-30.607815 -33.285748 0.26281476 34 21
-56.324242 -50.35968 -0.439125 40 19
-14.858053 -14.652031 -2.2477529 19 5
-20.777594 -16.825361 -2.4957342 18 6
-25.996674 -25.636204 -2.553087 23 8
-24.64694 -22.036907 -2.6990225 13 7
-30.51148 -33.180984 1.3118666 29 25
-60.058331 -53.698345 1.4062451 63 23
-14.479807 -15.746671 -1.370994 11 9
-49.541492 -40.117905 -3.7125256 27 10
-24.569588 -24.228905 -1.6073712 26 12
-47.939884 -42.863201 -3.3702266 63 11
-30.626245 -33.30579 -1.8433886 39 13
-0.62893832 -0.55839753 -0.39218977 5 0
-32.388115 -34.975979 -0.83206093 34 17
-52.63168 -46.728588 -2.0483227 49 15
-5.0748539 -4.9696636 -1.9883879 31 1
-7.6906018 -6.8280349 -2.0568783 33 2
-9.454484 -9.2585144 -2.058718 16 3
-13.31109 -11.818137 -2.2657571 19 4
-30.778175 -33.237404 0.26327971 34 21
-56.795811 -50.425674 -0.44142652 40 19
-14.920475 -14.611208 -2.2494667 22 5
-20.839304 -16.755226 -2.4961061 21 6
-24.610424 -21.850155 -2.686655 13 7
-14.477731 -15.634525 -1.3656216 11 9
-50.851372 -40.885544 -3.7999666 28 10
-24.471306 -23.964073 -1.5954592 26 12
-48.089214 -42.695599 -3.3702266 63 11
-30.709736 -33.163494 -1.8414348 39 13
-24.699781 -24.187813 -0.80443943 14 16
-0.62000632 -0.54660922 -0.38542789 2 0
-31.301682 -33.566956 -0.8011353 33 17
-55.850624 -49.238964 -2.1668959 49 15
-5.0894074 -4.9492345 -1.9873096 27 1
-7.734983 -6.8193069 -2.0623696 29 2
-9.6312542 -9.3659897 -2.0900784 11 3
-13.376073 -11.792598 -2.2697978 28 4
-30.77397 -33.001053 0.2622568 34 21
-60.259903 -53.126266 -0.46690595 63 19
-14.928616 -14.517449 -2.2430408 22 5
-20.897659 -16.682388 -2.4961061 21 6
-24.758986 -24.07707 -2.4149692 21 8
-24.815134 -21.877491 -2.7006497 13 7
-31.184128 -33.440891 1.3307174 29 25
-14.477766 -15.525509 -1.3605049 11 9
-54.960297 -43.874245 -4.0955453 30 10
-24.417305 -23.744801 -1.5865252 26 12
-48.279896 -42.564468 -3.3731575 63 11
-30.811674 -33.041485 -1.8406206 39 13
-30.824564 -32.824837 -0.7859866 33 17
-56.094364 -49.106918 -2.1696885 49 15
-5.1011114 -4.9260874 -1.985153 26 1
-7.7616911 -6.7948484 -2.063154 36 2
-9.6212425 -9.2911282 -2.0808547 10 3
-13.423125 -11.75106 -2.270808 23 4
-30.968382 -32.977989 0.26293099 34 21
-60.134991 -52.644218 -0.46451142 41 19
-14.984923 -14.470776 -2.2438977 22 5
-20.99634 -16.641499 -2.5009391 18 6
-21.48457 -20.747412 -2.0885088 19 8
-25.122324 -21.992937 -2.7257099 18 7
-31.826174 -33.891445 1.3530589 30 25
-21.989086 -23.416008 -2.0586653 15 9
-54.565453 -43.248062 -4.0548482 30 10
-24.477051 -23.637218 -1.5850363 26 12
-48.482277 -42.443035 -3.3769255 63 11
-31.118336 -33.137676 -1.8520186 39 13
-24.758728 -23.909231 -0.80090338 28 16
-0.62380725 -0.54226744 -0.38542789 11 0
-60.230511 -52.35759 -2.3225882 50 15
-5.1210561 -4.9109168 -1.9862313 26 1
-7.7853627 -6.7677135 -2.063154 40 2
-9.4225464 -9.0358982 -2.0310471 11 3
-13.446095 -11.688514 -2.2677774 23 4
-30.989872 -32.770878 0.26214057 34 21
-61.036865 -53.058544 -0.47004437 63 19
-15.012382 -14.396358 -2.2404704 22 5
-21.069954 -16.580421 -2.5027981 18 6
-21.551102 -20.666767 -2.0879507 9 8
-25.138769 -21.8528 -2.7192008 18 7
-31.867365 -33.698799 1.3498008 30 25
-21.982925 -23.246296 -2.0504789 14 9
-55.657524 -43.798161 -4.1246147 30 10
-21.568792 -20.683731 -1.3920251 10 12
-48.401024 -42.074375 -3.3610153 63 11
-31.272264 -33.0695 -1.8542982 39 13
-24.87956 -23.858644 -0.80211312 28 16
-0.63941789 -0.55193043 -0.39388025 8 0
-31.193644 -32.756538 -0.78954685 33 17
-57.053288 -49.247055 -2.1934261 49 15
-5.1465368 -4.900979 -1.9894662 29 1
-7.8237867 -6.7533083 -2.0670764 39 2
-9.5141392 -9.0601883 -2.0439601 13 3
-13.501836 -11.654468 -2.2703028 16 4
-31.178558 -32.7407 0.26276827 34 21
-15.056787 -14.338379 -2.2396135 22 5
-21.294041 -16.636723 -2.5225022 22 6
-21.608667 -20.57765 -2.0865555 9 8
-25.353725 -21.884739 -2.7341719 18 7
-31.163136 -32.724503 1.315125 29 25
-81.431198 -70.289497 1.8776696 63 23
-22.699844 -23.837175 -2.1095757 15 9
-55.810078 -43.603596 -4.1246147 30 10
-21.623505 -20.591778 -1.3909084 10 12
-48.514347 -41.876442 -3.3587127 63 11
-31.519817 -33.099056 -1.8621141 39 13
-24.97138 -23.779917 -0.80239224 14 16
-0.63583529 -0.54497683 -0.39049929 8 0
-31.365921 -32.708084 -0.79101288 33 17
-57.434296 -49.22715 -2.2014554 50 15
-5.1636119 -4.8829851 -1.9894662 28 1
-7.8622007 -6.7387218 -2.0709987 35 2
-9.5945244 -9.0730915 -2.0544136 11 3
-8.4026337 -7.2019291 -1.4086484 5 4
-71.862297 -61.593445 -0.55008602 63 19
-15.095184 -14.274807 -2.2379003 22 5
-21.317362 -16.535442 -2.5184126 19 6
-21.622377 -20.447266 -2.0809751 19 8
-31.235655 -32.572243 1.3133794 29 25
-81.669968 -69.999634 1.8775299 63 23
-22.876848 -23.855759 -2.118274 30 9
-56.198582 -43.592087 -4.1420569 31 10
-21.732988 -20.551867 -1.3933281 10 12
-31.159355 -32.49268 -1.8341075 39 13
-47.147751 -44.585415 -1.509964 63 16
-0.6266908 -0.53335571 -0.38373742 8 0
-31.513243 -32.632919 -0.79185057 33 17
-5.1778178 -4.8622947 -1.9883879 25 1
-7.8976235 -6.7214046 -2.0741365 31 2
-9.6751194 -9.0855427 -2.0648673 11 3
-8.4156351 -7.1622672 -1.406628 6 4
-31.36191 -32.476208 0.26239631 34 21
-15.171014 -14.246531 -2.2417557 22 5
-21.444374 -16.514393 -2.5265918 19 6
-21.920506 -20.584724 -2.1027391 18 8
-8.4159403 -7.1625271 -0.90216935 9 7
-32.110191 -33.251076 1.3452626 30 25
-23.220642 -24.045679 -2.1423221 15 9
-56.350403 -43.395657 -4.1420569 31 10
-21.743429 -20.41844 -1.3894193 10 12
-49.973949 -51.749542 -2.9309244 63 13
-47.527561 -44.631351 -1.5171289 63 16
-0.62577981 -0.52882493 -0.38204694 11 0
-31.65484 -32.551384 -0.79254872 33 17
-5.1919413 -4.8415632 -1.9873096 24 1
-7.9240341 -6.6963282 -2.0749211 36 2
-9.7616959 -9.1029282 -2.0765502 16 3
-8.4405851 -7.1328473 -1.406628 6 4
-32.322819 -33.238281 0.2694636 34 21
-15.264278 -14.234169 -2.2481813 26 5
-21.552511 -16.478138 -2.5325401 19 6
-21.893003 -20.415554 -2.0932522 18 8
-8.4439363 -7.1356797 -0.90249485 8 7
-23.443581 -24.107561 -2.1551135 31 9
-56.739464 -43.380596 -4.1594987 31 10
-47.457283 -44.254631 -3.0226619 63 12
-8.4695683 -7.1573396 -0.58113849 23 11
-31.438377 -32.328793 -1.8372012 39 13
-47.647968 -44.432446 -1.5160124 63 16
-0.62762177 -0.52663749 -0.38204694 11 0
-31.740284 -32.412128 -0.79185057 33 17
-8.5178709 -7.147346 -0.32360309 35 15
-5.2144613 -4.8286462 -1.9894662 24 1
-7.9683914 -6.6862779 -2.0804124 40 2
-9.8369102 -9.1090832 -2.0857739 17 3
-8.4867077 -7.1211972 -1.4101635 6 4
-32.970371 -33.668251 0.27388063 34 21
-15.340132 -14.205124 -2.252037 22 5
-21.619413 -16.410036 -2.5336556 19 6
-25.316423 -23.443275 -2.4127369 21 8
-8.4871149 -7.1215391 -0.9044475 6 7
-8.5293703 -7.1569958 0.19435 29 23
-33.710579 -34.424126 -3.0878704 31 9
-40.79604 -30.965895 -2.9827645 19 10
-47.740456 -44.208164 -3.0308514 63 12
-8.5036783 -7.135437 -0.58176655 9 11
-31.548231 -32.216007 -1.8370384 39 13
-40.872112 -31.023638 -1.7918798 39 14
-51.93401 -48.091442 -1.6470304 63 16
-0.62945646 -0.52444327 -0.38204694 11 0
-31.87009 -32.318214 -0.79226947 33 17
-5.2397923 -4.8182354 -1.9927011 24 1
-7.9736028 -6.6433549 -2.0757055 36 2
-52.074459 -47.884914 0 63 20
-9.8861065 -9.0907402 -2.0894635 16 3
-13.779387 -11.480552 -2.2829294 15 4
-33.098942 -33.564342 0.27397364 34 21
-15.392555 -14.154179 -2.2524652 22 5
-21.686108 -16.341654 -2.5347707 19 6
-22.040873 -20.267618 -2.0938103 18 8
-8.5389395 -7.1143756 0.19400094 7 23
-33.923042 -34.400032 -3.0963128 31 9
-47.962143 -44.103447 -3.0351322 63 12
-50.448578 -51.157932 -2.9271796 63 13
-52.216377 -48.015411 -1.6506593 63 16
-0.63128328 -0.52224284 -0.38204694 19 0
-5.2594237 -4.8025126 -1.9937794 27 1
-7.9937229 -6.6129813 -2.0749211 36 2
-52.23243 -47.694752 0 63 20
-9.944047 -9.0801601 -2.0949976 13 3
-13.856069 -11.462735 -2.2889903 16 4
-15.459491 -14.116451 -2.2550356 19 5
-21.765345 -16.282555 -2.5373733 22 6
-22.073179 -20.155577 -2.090183 19 8
-25.797266 -21.341352 -2.7331958 18 7
-51.762772 -47.265892 -3.265182 63 12
-51.559772 -47.080532 -1.6246978 63 16
-0.62749964 -0.51543415 -0.37866598 16 0
-5.2847152 -4.7918882 -1.9970144 27 1
-8.0470648 -6.6099358 -2.0827658 31 2
-52.274132 -47.3993 0 63 20
-9.9639673 -9.0347767 -2.0925381 16 3
-13.932788 -11.444525 -2.2950513 16 4
-15.538129 -14.089119 -2.2593195 22 5
-21.908373 -16.270596 -2.5474112 22 6
-27.913507 -25.310431 -2.6348417 24 8
-25.831551 -21.218281 -2.7289646 18 7
-27.5207 -27.520706 -2.4943442 17 9
-52.096146 -47.237915 -3.2757912 63 12
-49.294571 -40.491028 -3.3432214 63 11
-50.660351 -50.660366 -2.918875 63 13
-51.661579 -46.843872 -1.6227437 63 16
-0.63491374 -0.5178231 -0.38204694 19 0
-5.3014102 -4.7734118 -1.9970144 26 1
-8.06705 -6.5793266 -2.0819812 36 2
-52.653301 -47.409252 0 63 20
-10.065939 -9.0634136 -2.1072958 7 3
-14.028003 -11.440962 -2.3041427 17 4
-15.634504 -14.077374 -2.2661738 23 5
-22.038767 -16.248383 -2.5559621 19 6
-27.975 -25.188807 -2.6323302 24 8
-25.954893 -21.168299 -2.7341719 18 7
-27.67325 -27.480732 -2.4994609 17 9
-52.361687 -47.146683 -3.2821193 63 12
-49.420135 -40.306087 -3.3421745 63 11
-50.828373 -50.47477 -2.9183865 63 13
-52.035778 -46.853233 -1.6293503 63 16
-0.6423521 -0.52016652 -0.38542789 24 0
-5.3266544 -4.7625794 -2.0002494 24 1
-8.1143522 -6.5708733 -2.0882571 36 2
-52.720058 -47.13718 0 63 20
-10.112247 -9.0413933 -2.1103704 11 3
-14.086355 -11.406906 -2.307173 15 4
-15.686512 -14.025363 -2.2666023 23 5
-22.140343 -16.204283 -2.561167 22 6
-28.027061 -25.05909 -2.6289821 24 8
-26.099888 -21.135273 -2.7416575 18 7
-48.254517 -43.144524 -3.0152168 63 12
-49.669174 -40.221306 -3.3495014 63 11
-53.191715 -47.558887 -1.6603369 63 16
-0.64133865 -0.51564956 -0.38373742 24 0
-5.3432469 -4.7439575 -2.0002494 24 1
-8.1341839 -6.5400519 -2.0874724 20 2
-56.662159 -50.307026 0 63 20
-10.143746 -9.0060406 -2.1103704 20 3
-14.175567 -11.397449 -2.3152542 16 4
-15.794855 -14.023331 -2.2751698 16 5
-22.277325 -16.185427 -2.5704615 19 6
-19.046204 -13.837879 0.27407768 3 22
-28.093479 -24.942562 -2.6270289 24 8
-26.226324 -21.086508 -2.7471902 18 7
-24.253746 -23.751024 -2.17558 31 9
-60.525177 -43.974125 -4.3569384 32 10
-48.079147 -42.686668 -2.9949293 63 12
-24.474678 -23.967377 -1.3956085 21 13
-53.300587 -47.322483 -1.658569 63 16
-0.64871055 -0.51804447 -0.38711837 24 0
-5.3618364 -4.7287607 -2.0013275 24 1
-8.1711493 -6.525281 -2.0913949 27 2
-57.074661 -50.335815 0 63 20
-10.170589 -8.9697409 -2.1097555 13 3
-14.25359 -11.38257 -2.3218203 16 4
-15.850216 -13.97877 -2.2764549 20 5
-22.353479 -16.127779 -2.5730639 22 6
-28.19099 -24.862461 -2.6284239 24 8
-25.741581 -20.556601 -2.6892588 13 7
-24.278002 -23.617584 -2.1707191 15 9
-60.751621 -43.831596 -4.3627524 32 10
-48.166485 -42.479435 -2.9915788 63 12
-49.829426 -39.792568 -3.3419652 63 11
-24.619907 -23.950191 -1.3993537 21 13
-55.766575 -49.182175 -1.7302195 63 16
-0.65903699 -0.5225336 -0.39218977 24 0
-24.668316 -23.830238 -0.59868735 15 17
-5.3841071 -4.7150898 -2.003484 27 1
-8.1938782 -6.4967165 -2.0913949 27 2
-67.773201 -59.351852 0 63 20
-19.009884 -13.614758 -0.2722151 17 18
-10.195893 -8.9289732 -2.1085258 16 3
-14.277691 -11.320416 -2.3192947 21 4
-15.895926 -13.920733 -2.2760267 10 5
-22.348124 -16.005585 -2.566 19 6
-28.370672 -24.845394 -2.6370738 24 8
-26.544188 -21.046207 -2.7654159 13 7
-21.52951 -20.798069 -1.9184706 22 9
-61.391239 -43.968018 -4.3976359 32 10
-48.272396 -42.274174 -2.9889731 63 12
-50.008724 -39.650639 -3.3446867 63 11
-55.907841 -48.960854 -1.7292889 63 16
-0.66085702 -0.52022988 -0.39218977 24 0
-5.3947201 -4.6912112 -2.0013275 27 1
-8.2473269 -6.4923363 -2.0992396 33 2
-71.716721 -62.364365 0 63 20
-19.252888 -13.68737 -0.27500895 15 18
-10.238929 -8.9037018 -2.1109853 15 3
-14.32024 -11.272964 -2.3197999 22 4
-15.737352 -13.685093 -2.2464681 13 5
-22.553173 -16.033628 -2.5831017 22 6
-19.259407 -13.692006 0.27510211 14 22
-28.381952 -24.68075 -2.6300981 24 8
-26.796051 -21.093983 -2.7839673 13 7
-21.544369 -20.667521 -1.9133539 22 9
-62.029278 -44.098202 -4.4322867 33 10
-48.401585 -42.089684 -2.9878566 63 12
-50.448143 -39.713024 -3.3647835 63 11
-21.579325 -20.701056 -1.2182876 10 13
-19.200108 -13.649848 -0.82265091 16 14
-60.643978 -52.735584 -1.8700773 63 16
-0.66552526 -0.52015251 -0.39388025 24 0
-25.091799 -23.902956 -0.60490036 31 17
-5.4110618 -4.6723528 -2.0013275 27 1
-8.2606659 -6.4562635 -2.0968862 34 2
-71.988464 -62.160721 0 63 20
-19.137148 -13.50478 -0.27268076 15 18
-10.251996 -8.8524103 -2.1072958 12 3
-14.4189 -11.269336 -2.3293962 19 4
-22.615509 -15.959404 -2.5838454 16 6
-66.493675 -57.416073 2.0442717 63 24
-18.960676 -13.380246 0.27016628 13 22
-28.700476 -24.782335 -2.651583 24 8
-26.250706 -20.516684 -2.7198517 13 7
-21.674181 -20.647264 -1.9184706 15 9
-54.964344 -42.958313 -3.6559808 63 11
-21.550167 -20.529125 -1.2125887 10 13
-19.247635 -13.582748 -0.82265091 16 14
-60.764122 -52.468708 -1.8681232 63 16
-0.66160864 -0.5133813 -0.39049929 24 0
-5.4273386 -4.6534362 -2.0013275 28 1
-8.2552633 -6.4057474 -2.0898259 37 2
-19.069511 -13.35758 -0.27105099 17 18
-8.4135008 -7.2137918 -1.724207 4 3
-14.4895 -11.243261 -2.3344469 16 4
-8.4234724 -7.222342 -1.1952032 3 5
-19.1905 -13.442328 -2.18716 14 6
-19.013821 -13.31857 0.27025941 16 22
-27.147388 -21.065266 -2.8051219 9 7
-21.73452 -20.560507 -1.9174472 7 9
-48.560768 -41.636326 -2.9796672 63 12
-55.136051 -42.783329 -3.6574464 63 11
-21.732023 -20.558144 -1.2187761 10 13
-19.31785 -13.531533 -0.82362813 20 14
-8.539731 -7.3220224 -0.26175687 0 16
-0.67201221 -0.51770604 -0.39557073 24 0
-52.122261 -48.963192 -1.2482659 63 17
-5.4464822 -4.63696 -2.0024059 24 1
-7.0813026 -5.4553075 -1.7878053 47 2
-19.139011 -13.306915 -0.27137694 17 18
-8.4205742 -7.1690059 -1.7205176 4 3
-14.541233 -11.202303 -2.3364675 13 4
-8.4274349 -7.1748476 -1.1922045 6 5
-22.778698 -15.837506 -2.5897937 22 6
-8.6200457 -7.33883 0.26343179 1 24
-19.109455 -13.286366 0.27095786 13 22
-27.135483 -20.904684 -2.7963343 18 7
-21.896351 -20.569241 -1.925378 14 9
-47.175709 -44.316448 -2.637018 63 13
-0.67093569 -0.51315469 -0.39388025 22 0
-51.526646 -48.066196 -1.2299758 63 17
-5.4626355 -4.6179194 -2.0024059 23 1
-8.2935514 -6.3431935 -2.0882571 39 2
-19.109631 -13.187776 -0.27030596 16 18
-8.4515848 -7.1446719 -1.7217475 4 3
-14.621222 -11.182813 -2.3430333 18 4
-8.4372435 -7.1325483 -1.1900625 6 5
-22.971512 -15.852904 -2.6054084 26 6
-19.333479 -13.342257 0.27347234 14 22
-8.4440479 -7.1383004 -0.77318078 4 8
-27.344456 -20.913979 -2.810329 13 7
-47.391491 -44.208755 -2.6404374 63 13
-0.67272288 -0.51080954 -0.39388025 19 0
-51.556213 -47.758297 -1.2266947 63 17
-5.4787211 -4.5988235 -2.0024059 26 1
-8.3187675 -6.316577 -2.0890415 34 2
-19.125849 -13.100647 -0.26988691 16 18
-8.4946356 -7.130374 -1.7254369 3 3
-14.691769 -11.155703 -2.348084 19 4
-8.4712267 -7.1107244 -1.1913477 5 5
-23.000423 -15.754618 -2.6024342 19 6
-19.310638 -13.227223 0.27249449 7 22
-8.4750252 -7.1139131 -0.77373886 4 8
-27.442696 -20.837692 -2.8129327 18 7
-8.5048809 -7.1389732 -0.51723999 12 12
-47.68919 -44.17614 -2.648416 63 13
-8.5087357 -7.1422095 -0.25850001 15 16
-0.6716069 -0.50627589 -0.39218977 13 0
-51.699066 -47.556381 -1.2261363 63 17
-5.4917817 -4.5772047 -2.0013275 26 1
-8.3564253 -6.2993054 -2.0929639 39 2
-8.5512886 -7.1271949 0 12 20
-19.237616 -13.078778 -0.27081817 20 18
-14.721114 -11.097184 -2.3465688 18 4
-8.5265465 -7.1065731 -1.1956315 3 5
-23.009167 -15.642884 -2.5972292 19 6
-8.5459023 -7.1227055 0.25887221 5 24
-8.5304585 -7.1098337 -0.77652907 2 8
-27.486614 -20.720171 -2.8100038 18 7
-29.414139 -27.057163 -2.5613716 28 9
-41.023304 -30.924505 -2.6923714 47 11
-52.284733 -48.095119 -2.8942881 63 13
-0.67627239 -0.50610071 -0.39388025 13 0
-51.773193 -47.292019 -1.2239722 63 17
-5.51366 -4.5629191 -2.003484 26 1
-8.3783617 -6.2700992 -2.0929639 42 2
-23.212059 -15.662635 -0.32599691 16 18
-10.121505 -8.3762169 -2.0439601 13 3
-14.794703 -11.071885 -2.3521245 19 4
-52.477188 -47.935081 0.41308761 63 21
-23.099941 -15.586983 -2.6013188 16 6
-27.613028 -20.664711 -2.8155363 18 7
-29.602713 -27.040482 -2.5695584 28 9
-52.301785 -47.77486 -2.8859837 63 13
-0.683855 -0.50806093 -0.3972612 11 0
-51.982399 -47.151318 -1.2250193 63 17
-5.5295544 -4.5436449 -2.003484 25 1
-6.9109578 -5.1344037 -1.72191 20 2
-23.176863 -15.521421 -0.32473969 13 18
-10.178165 -8.3634176 -2.0494943 19 3
-14.836447 -11.02254 -2.3526294 18 4
-59.692459 -54.144825 0.46839377 63 21
-13.922478 -11.440125 -1.941027 21 5
-23.084719 -15.459713 -2.5935116 16 6
-29.806086 -24.491716 -2.6976223 24 8
-27.742599 -20.610992 -2.8213947 13 7
-29.623007 -26.869936 -2.5631626 28 9
-64.563553 -43.237865 -4.5253091 33 10
-49.323292 -40.529041 -2.9737113 63 12
-50.06448 -45.411644 -2.7537663 63 13
-0.66228402 -0.48845628 -0.38373742 8 0
-52.072392 -46.902649 -1.2232741 63 17
-5.5513511 -4.5291848 -2.0056407 24 1
-8.4282455 -6.2161088 -2.0945327 34 2
-23.091 -15.347431 -0.32278398 16 18
-10.311423 -8.4127884 -2.0704012 18 3
-14.919544 -11.003655 -2.3597007 18 4
-59.518517 -53.609524 0.46555758 63 21
-13.962327 -11.391455 -1.941027 17 5
-23.244686 -15.44958 -2.6054084 16 6
-29.909948 -24.402653 -2.6992965 24 8
-27.811172 -20.511656 -2.8210692 13 7
-29.746288 -26.793079 -2.5657208 28 9
-64.714096 -43.012222 -4.5253091 33 10
-49.467564 -40.359138 -2.9738972 63 12
-52.898357 -47.64661 -2.9004755 63 13
-0.67568523 -0.49470785 -0.39049929 8 0
-52.450432 -46.912563 -1.2283005 63 17
-5.5641346 -4.5073547 -2.0045624 25 1
-8.4688826 -6.2005539 -2.0992396 17 2
-23.111042 -15.24471 -0.32231835 11 18
-10.451291 -8.4663076 -2.0925381 16 3
-14.986679 -10.972606 -2.3642464 16 4
-56.548 -50.577499 0.44093829 63 21
-13.961834 -11.310103 -1.9354579 17 5
-23.345016 -15.399046 -2.6106131 22 6
-23.11772 -15.249114 0.32241145 17 22
-29.960842 -24.270468 -2.6962271 24 8
-28.004843 -20.503948 -2.8334365 13 7
-28.033607 -25.07374 -2.4104321 16 9
-49.583313 -40.1661 -2.9724083 63 12
-98.904396 -72.413574 -6.4241347 63 11
-52.653255 -47.093975 -2.878005 63 13
-23.181953 -15.291485 -0.96978724 4 14
-0.67154288 -0.48808369 -0.38711837 5 0
-52.583958 -46.702644 -1.2276022 63 17
-5.5828342 -4.4903197 -2.0056407 27 1
-8.4873009 -6.1686497 -2.0984552 34 2
-10.563934 -8.4966593 -2.1091406 11 3
-15.028095 -10.922561 -2.3647513 16 4
-60.25021 -53.511456 0.46834731 63 21
-19.128885 -13.903053 -0.13744015 13 19
-14.118986 -11.356017 -1.9517368 19 5
-23.378633 -15.30438 -2.6083825 19 6
-23.164114 -15.163949 0.32231835 17 22
-30.266136 -24.343304 -2.716038 25 8
-28.053663 -20.389666 -2.8311584 13 7
-28.091108 -24.949226 -2.4078736 16 9
-49.757454 -40.020332 -2.9744556 63 12
-99.321335 -72.187683 -6.4348111 63 11
-52.811337 -46.904594 -2.8776793 63 13
-0.66719466 -0.481727 -0.38373742 5 0
-56.148834 -49.554111 -1.3071852 63 17
-19.148472 -13.825556 -0.68735111 3 15
-5.5999246 -4.4751616 -2.0067191 26 1
-8.5066395 -6.1419525 -2.0984552 34 2
-10.593666 -8.4658947 -2.1097555 7 3
-15.110593 -10.910131 -2.3723273 18 4
-60.505005 -53.398647 0.46902147 63 21
-19.10437 -13.793713 -0.13695194 7 19
-14.076927 -11.249532 -1.941027 19 5
-23.259651 -15.122307 -2.5897937 22 6
-23.342421 -15.176121 0.32413435 17 22
-30.386112 -24.282963 -2.7199442 25 8
-27.487291 -19.846338 -2.7676942 9 7
-18.929926 -13.667761 0.40754861 14 23
-28.244179 -24.92688 -2.4142694 17 9
-49.929771 -39.901215 -2.9772475 63 12
-53.018375 -46.791325 -2.8809359 63 13
-0.67779654 -0.48561266 -0.38880882 5 0
-56.558701 -49.54829 -1.3124908 63 17
-5.6162877 -4.4546084 -2.0067191 23 1
-8.5099621 -6.0970292 -2.0937483 27 2
-10.637008 -8.4368382 -2.1122153 12 3
-15.189185 -10.882411 -2.3783884 19 4
-71.600777 -62.725914 0.55324769 63 21
-19.067003 -13.660706 -0.13632426 10 19
-14.329942 -11.365921 -1.9701576 29 5
-23.398592 -15.090926 -2.599088 19 6
-30.556185 -24.23591 -2.7271991 25 8
-28.379765 -20.332907 -2.8500347 18 7
-19.05792 -13.654197 0.40922403 14 23
-28.281298 -24.775852 -2.4096646 16 9
-99.972763 -71.626274 -6.4452786 63 11
-56.312996 -49.333042 -3.0501153 63 13
-0.67062461 -0.47694054 -0.38373742 2 0
-56.9697 -49.557926 -1.3180058 63 17
-19.009054 -13.519022 -0.67885667 26 15
-5.631803 -4.4349761 -2.0067191 21 1
-8.5631561 -6.0900187 -2.101593 16 2
-23.258394 -14.885806 -0.32148015 11 18
-10.703657 -8.4289989 -2.1195941 10 3
-15.217379 -10.822425 -2.3768733 19 4
-71.722733 -62.391586 0.55250382 63 21
-19.209103 -13.661293 -0.13699843 7 19
-14.335158 -11.288763 -1.9654453 27 5
-23.531633 -15.060684 -2.6080108 16 6
-31.051273 -24.452499 -2.7637515 25 8
-28.210152 -20.062737 -2.8259511 13 7
-65.995148 -57.409161 2.5456545 63 25
-19.121759 -13.599176 0.40957308 24 23
-28.43387 -24.734615 -2.4152925 17 9
-100.43376 -71.427338 -6.4588857 63 11
-66.076912 -57.480289 -3.5680747 63 13
-0.66035753 -0.46634901 -0.37697551 2 0
-57.499886 -49.685135 -1.3264527 63 17
-18.975399 -13.400556 -0.67606401 22 15
-5.6464796 -4.416276 -2.0067191 23 1
-7.2889209 -5.1474853 -1.7846675 34 2
-15.308284 -10.810814 -2.3854592 15 4
-19.296774 -13.627513 -0.13730066 10 19
-14.338057 -11.214211 -1.9607329 25 5
-23.689016 -15.050911 -2.6199076 16 6
-31.424498 -24.578014 -2.7897007 25 8
-28.276525 -19.969074 -2.8259511 13 7
-66.336426 -57.320709 2.5514727 63 25
-19.085081 -13.478014 0.40782785 17 23
-28.817776 -24.901182 -2.4408758 17 9
-100.78428 -71.174545 -6.4662127 63 11
-33.812183 -21.482704 -1.3989115 19 14
-0.6590935 -0.46184522 -0.37528506 2 0
-67.927132 -58.261738 -1.5620602 63 17
-18.952349 -13.280439 -0.67350405 26 15
-5.6626277 -4.3955512 -2.0067191 23 1
-7.2820406 -5.1027288 -1.7783918 40 2
-10.830929 -8.4073868 -2.133122 11 3
-15.351055 -10.756913 -2.3859646 13 4
-18.910917 -13.251408 -0.13420872 7 19
-14.479593 -11.239621 -1.9744413 19 5
-23.797932 -14.997961 -2.6258559 16 6
-31.530128 -24.474909 -2.791096 46 8
-19.184824 -13.443342 -1.9123907 11 7
-19.173655 -13.435514 0.40866554 17 23
-8.4172297 -7.2195368 -0.71069622 2 9
-68.099861 -42.917973 -4.6878657 63 10
-55.037128 -42.721954 -3.2454526 63 12
-8.5427856 -7.3272276 -0.45852688 2 13
-34.516357 -21.752939 -1.4247371 20 14
-0.66657293 -0.46379802 -0.37866598 2 0
-19.012695 -13.228934 -0.67408586 26 15
-5.6924257 -4.3885074 -2.0121105 29 1
-7.2989221 -5.0785522 -1.7783918 34 2
-10.833708 -8.3521175 -2.1282029 13 3
-13.461683 -9.3665695 -2.0874665 6 4
-18.977741 -13.204614 -0.13437146 13 19
-14.557731 -11.223108 -1.9800104 21 5
-23.918442 -14.963317 -2.6336632 19 6
-31.595318 -24.35803 -2.7897007 25 8
-28.480698 -19.816721 -2.8324602 9 7
-19.178711 -13.344447 0.40782785 17 23
-55.346222 -42.668503 -3.2553177 63 12
-33.974895 -21.254608 -1.3994699 19 14
-19.127846 -13.2102 -0.67652947 19 15
-5.7015929 -4.3639278 -2.009954 24 1
-7.3004684 -5.0418983 -1.7744694 30 2
-10.99462 -8.4151449 -2.1540291 10 3
-13.471443 -9.3037376 -2.083931 12 4
-19.125748 -13.208752 -0.13509214 10 19
-14.571556 -11.152887 -1.9765834 23 5
-23.943459 -14.862931 -2.6306891 22 6
-31.800562 -24.339754 -2.8003039 46 8
-28.890863 -19.952801 -2.8663077 19 7
-19.297573 -13.327418 0.40936366 17 23
-8.4387493 -7.1388717 -0.70839375 5 9
-102.13873 -70.539726 -6.5053596 63 11
-34.49041 -21.409964 -1.4176176 20 14
-0.66987467 -0.45901635 -0.37866598 5 0
-8.4962444 -7.1342521 -0.1936519 30 17
-5.7236824 -4.3476629 -2.0121105 26 1
-8.6843147 -5.9507289 -2.1055152 30 2
-11.028534 -8.3771849 -2.154644 7 3
-13.498902 -9.249815 -2.0829206 19 4
-8.4973955 -7.1352186 0.064489 19 21
-19.183928 -13.14535 -0.13516188 13 19
-14.6345 -11.116247 -1.9795821 23 5
-24.004553 -14.779256 -2.6314328 19 6
-31.921326 -24.247179 -2.8030941 46 8
-28.855268 -19.772417 -2.8555677 14 7
-8.478632 -7.1194634 0.32220674 9 25
-19.517845 -13.37416 0.41299376 7 23
-8.4679127 -7.1104627 -0.70864964 5 9
-34.551609 -21.272924 -2.3630025 13 10
-102.60416 -70.307159 -6.518549 63 11
-8.5057983 -7.1422749 -0.45250216 15 13
-34.020584 -20.94598 -1.3951423 13 14
-0.67738777 -0.46087101 -0.38204694 5 0
-8.5259981 -7.1111617 -0.19379151 7 17
-19.3915 -13.193301 -0.68258029 9 15
-5.7319188 -4.3240185 -2.009954 27 1
-8.7137299 -5.9285178 -2.1078687 30 2
-11.226642 -8.4691019 -2.187849 7 3
-13.46717 -9.1625919 -2.0733242 23 4
-8.5302258 -7.1146874 0.064558744 8 21
-19.306786 -13.135663 -0.13571982 13 19
-14.807805 -11.170644 -1.9980026 14 5
-24.134993 -14.749415 -2.6403553 23 6
-31.992004 -24.13398 -2.8022571 46 8
-29.065714 -19.775297 -2.8698881 19 7
-8.5083361 -7.0964298 0.32243949 6 25
-19.482729 -13.255369 0.4113183 3 23
-8.5159702 -7.1027975 -0.71069622 2 9
-41.017925 -30.942913 -2.3933749 63 12
-102.91931 -70.022705 -6.5237823 63 11
-34.181957 -20.889334 -1.3989115 19 14
-41.02256 -30.946409 -1.1957254 30 16
-0.68207711 -0.4604134 -0.38373742 8 0
-5.7569795 -4.3099065 -2.0131888 42 1
-8.7419024 -5.9009295 -2.1094377 20 2
-13.494084 -9.1087313 -2.0723143 22 4
-19.384636 -13.084952 -0.13592905 7 19
-14.73722 -11.032876 -1.9830091 29 5
-24.178671 -14.654663 -2.63924 20 6
-32.297455 -24.179173 -2.8212306 46 8
-29.243736 -19.740009 -2.8803024 14 7
-29.629295 -24.528915 -2.4651797 17 9
-34.702698 -21.03326 -2.3632352 26 10
-99.211617 -74.273811 -5.7730236 63 12
-103.45006 -69.830513 -6.5411577 63 11
-34.025822 -20.623009 -1.3894187 13 14
-0.68653131 -0.46028703 -0.38542789 11 0
-23.216955 -15.565879 -0.81348771 4 15
-5.8106709 -4.3216825 -2.0272069 48 1
-8.7473669 -5.8646989 -2.1062999 36 2
-13.565478 -9.0950165 -2.0788801 17 4
-14.940937 -11.112311 -2.0057137 23 5
-24.180229 -14.551934 -2.6344068 22 6
-32.280407 -24.00853 -2.8131392 46 8
-29.391703 -19.705757 -2.8887644 19 7
-29.696964 -24.428102 -2.4644122 17 9
-34.765179 -20.922077 -2.3630025 26 10
-99.482933 -73.990364 -5.7752571 63 12
-103.86469 -69.636398 -6.5535092 63 11
-34.069889 -20.503643 -1.3885812 13 14
-0.69417 -0.46190456 -0.38880882 11 0
-5.8938937 -4.3517098 -2.0509293 66 1
-8.7775803 -5.8406506 -2.1086533 36 2
-9.8951225 -7.3059855 -1.9135994 7 3
-13.478218 -8.9684811 -2.0606976 9 4
-14.896449 -10.998675 -1.9945755 23 5
-24.316362 -14.518487 -2.6437013 20 6
-32.521305 -24.011848 -2.8268113 46 8
-29.652815 -19.731148 -2.9076409 19 7
-30.041744 -24.536404 -2.4859018 17 9
-34.951138 -20.868155 -2.3706768 26 10
-99.9431 -73.792198 -5.786983 63 12
-104.17696 -69.319923 -6.5579057 63 11
-34.189301 -20.413288 -1.3905356 13 14
-0.68670285 -0.45348522 -0.38373742 11 0
-23.258331 -15.35935 -0.81116045 16 15
-5.8997288 -4.3242769 -2.0476944 66 1
-8.7848234 -5.8013268 -2.1055152 31 2
-100.88896 -59.76067 -1.3651266 63 18
-11.447542 -8.3906136 -2.2081411 5 3
-13.337264 -8.8076706 -2.0344338 11 4
-23.2778 -15.372207 -0.16212916 10 19
-15.011739 -11.003034 -2.0048571 17 5
-24.404591 -14.45584 -2.6477907 20 6
-32.707912 -23.973656 -2.8357401 46 8
-29.721514 -19.62751 -2.9076409 14 7
-30.179926 -24.474125 -2.4902508 17 9
-35.223049 -20.864056 -2.3841653 13 10
-100.36123 -73.560966 -5.7962894 63 12
-104.53831 -69.035065 -6.5654416 63 11
-49.807697 -40.391083 -2.6125934 63 13
-34.845062 -20.64016 -1.4142672 20 14
-0.69131374 -0.45307258 -0.38542789 11 0
-23.29174 -15.264919 -0.8104623 24 15
-5.8151178 -4.2311354 -2.0131888 106 1
-8.8148623 -5.7770762 -2.1078687 31 2
-19.18985 -13.962718 0 3 20
-9.9363003 -7.2297468 -1.9117546 4 3
-13.328103 -8.7349596 -2.0283728 28 4
-23.160698 -15.179037 -0.16094352 6 19
-15.053271 -10.952904 -2.0052853 19 5
-24.437735 -14.360473 -2.645932 20 6
-32.720417 -23.807688 -2.8296018 46 8
-29.909887 -19.602314 -2.9193575 14 7
-37.590504 -30.266768 -3.0929868 31 9
-35.354191 -20.775366 -2.3881185 13 10
-102.63349 -74.677109 -5.9124308 63 12
-23.323122 -15.285486 -1.4614294 8 11
-35.134033 -20.645992 -1.4230618 20 14
-19.255796 -14.010702 -0.55412805 5 16
-0.69296956 -0.45053586 -0.38542789 11 0
-5.8493237 -4.2233238 -2.0196588 103 1
-8.8162451 -5.7319036 -2.1031621 34 2
-13.393291 -8.7076807 -2.0334234 23 4
-23.088737 -15.011199 -0.16006011 10 19
-15.299672 -11.046657 -2.0327022 12 5
-24.503963 -14.278834 -2.647419 20 6
-33.195667 -23.967909 -2.8630848 46 8
-33.192001 -26.525299 -2.7230563 29 9
-102.88381 -74.284088 -5.9111276 63 12
-23.402428 -15.215145 -1.4628948 8 11
-35.174919 -20.496964 -1.4216659 20 14
-0.69758433 -0.45007947 -0.38711837 11 0
-5.9078622 -4.2342939 -2.034755 101 1
-8.8427925 -5.7053452 -2.1047308 31 2
-19.146221 -13.722515 0 15 20
-9.8721285 -7.0755701 -1.8896178 13 3
-13.390266 -8.6393623 -2.0283728 16 4
-23.12756 -14.921836 -0.15996712 10 19
-15.179749 -10.879657 -2.0117111 19 5
-24.508835 -14.167295 -2.642586 20 6
-19.04678 -13.651243 0.54528803 11 24
-33.441296 -23.968107 -2.8770361 46 8
-30.069492 -19.400751 -2.9213104 9 7
-33.346939 -26.458895 -2.728173 29 9
-103.47052 -74.159576 -5.9299264 63 12
-19.232048 -13.784029 -0.55059201 15 16
-0.70212567 -0.44971913 -0.38880882 11 0
-5.9281468 -4.2191477 -2.0369115 66 1
-8.8418455 -5.6632977 -2.100024 32 2
-19.207912 -13.670548 0 12 20
-10.021124 -7.1321778 -1.9135994 21 3
-13.43889 -8.6077547 -2.0314033 17 4
-23.2948 -14.920572 -0.16078079 6 19
-15.390709 -10.953789 -2.0348439 14 5
-24.593683 -14.107747 -2.6466756 20 6
-33.618118 -23.926498 -2.8854067 46 8
-29.274231 -18.750462 -2.8379929 4 7
-72.885368 -41.809448 -4.8934455 62 10
-103.91444 -73.957405 -5.9412799 63 12
-82.430542 -52.797657 -5.1301804 63 11
-54.93417 -43.291073 -2.8495097 63 13
-89.137085 -51.131969 -3.588506 63 14
-18.873655 -13.432652 -0.5390535 20 16
-0.6976496 -0.44325453 -0.38542789 11 0
-34.533924 -21.941271 -1.1907338 15 15
-5.9435716 -4.197391 -2.0369115 104 1
-8.7301178 -5.5467162 -2.0686452 27 2
-19.091255 -13.482376 0 12 20
-9.9309692 -7.013319 -1.8914626 23 3
-13.590918 -8.6350451 -2.0495858 16 4
-15.408014 -10.881246 -2.0318453 17 5
-24.645226 -14.017512 -2.6466756 20 6
-19.082823 -13.476421 0.54361308 22 24
-33.71537 -23.810026 -2.8862441 46 8
-29.76338 -18.910286 -2.8786752 4 7
-33.511974 -26.210697 -2.7266381 29 9
-71.833656 -40.856968 -4.8127484 63 10
-104.27946 -73.642876 -5.9466777 63 12
-60.186169 -47.073364 -3.1129673 63 13
-18.922764 -13.363386 -0.5390535 20 16
-0.69597256 -0.43912619 -0.38373742 11 0
-5.8526664 -4.1056995 -2.0013275 67 1
-8.807209 -5.5569382 -2.0827658 29 2
-19.228477 -13.488955 0 12 20
-10.111501 -7.0933108 -1.9215932 16 3
-13.594484 -8.5774851 -2.0460503 11 4
-15.608166 -10.949272 -2.0536931 17 5
-24.664864 -13.926315 -2.644073 16 6
-19.098871 -13.398035 0.54286861 22 24
-30.557669 -19.280462 -2.9496253 14 7
-33.78957 -26.257153 -2.7424996 29 9
-77.563507 -43.794033 -5.1873965 61 10
-34.475296 -21.752302 -2.136354 31 11
-18.958103 -13.299285 -0.53886741 20 16
-0.70372355 -0.44041866 -0.38711837 11 0
-34.323208 -21.480852 -1.1783994 47 15
-5.9720044 -4.156837 -2.0369115 66 1
-8.824194 -5.5225372 -2.0819812 26 2
-19.244961 -13.395531 0 12 20
-10.179605 -7.0855536 -1.929587 10 3
-14.399456 -9.0117617 -2.1622171 9 4
-15.723269 -10.944243 -2.0635462 17 5
-24.816523 -13.89223 -2.6548545 20 6
-19.210213 -13.371345 0.54463667 22 24
-30.861315 -19.314259 -2.9720814 19 7
-35.652569 -27.495846 -2.8855085 30 9
-75.859337 -42.465878 -5.0629792 61 10
-103.64137 -58.018196 -4.1477356 63 14
-19.174112 -13.346216 -0.54361308 15 16
-0.69917291 -0.43401259 -0.38373742 11 0
-34.004257 -21.108191 -1.164785 15 15
-5.8921151 -4.069253 -2.0045624 102 1
-8.9043608 -5.5273948 -2.0961018 23 2
-19.165567 -13.236255 0 12 20
-10.055903 -6.9448771 -1.9013011 14 3
-16.482121 -10.231299 -2.4693015 12 4
-15.753458 -10.879761 -2.0622609 19 5
-24.853346 -13.79345 -2.6533675 20 6
-19.370968 -13.378111 0.54780042 22 24
-34.484905 -23.8162 -2.930609 46 8
-30.942064 -19.207331 -2.973058 14 7
-32.0285 -24.514217 -2.584908 28 9
-73.870667 -40.997753 -4.9201894 62 10
-105.49535 -72.857918 -5.972177 63 12
-34.328384 -21.309393 -2.1175129 31 11
-101.72466 -56.456547 -4.0627203 63 14
-19.094572 -13.187223 -0.53998405 20 16
-0.70670509 -0.4356184 -0.38711837 11 0
-34.461826 -21.242531 -1.1781667 47 15
-5.9969845 -4.1139121 -2.0358334 66 1
-8.8515635 -5.456171 -2.0796278 21 2
-19.273024 -13.221232 0 15 20
-10.191746 -6.9915047 -1.922823 19 3
-13.551829 -8.3534508 -2.0263524 8 4
-15.741647 -10.798718 -2.0562634 19 5
-24.934927 -13.73644 -2.6574569 16 6
-19.370033 -13.28778 0.54659075 22 24
-34.780018 -23.858978 -2.9493039 46 8
-31.097281 -19.1686 -2.9821708 14 7
-72.078911 -39.707657 -4.7925162 63 10
-106.14877 -72.817711 -5.9961872 63 12
-34.378159 -21.190958 -2.1164663 31 11
-40.972855 -31.156479 -2.0970764 40 13
-101.55139 -55.943798 -4.0487604 63 14
-19.122715 -13.11812 -0.53961182 25 16
-0.70512867 -0.43125752 -0.38542789 11 0
-34.491417 -21.094992 -1.176654 15 15
-6.0272274 -4.1037941 -2.0412247 66 1
-8.8872852 -5.4354739 -2.0835502 8 2
-19.269459 -13.120111 0 21 20
-78.357727 -42.810783 -1.0395023 61 18
-13.526744 -8.2729721 -2.0182714 4 4
-15.89759 -10.824286 -2.0716856 14 5
-25.035149 -13.677966 -2.6630335 20 6
-19.518766 -13.289859 0.54947537 11 24
-78.480576 -42.877903 1.041132 63 22
-34.922455 -23.777859 -2.9543262 46 8
-31.150394 -19.051619 -2.9808691 14 7
-31.948246 -24.118479 -2.5654652 28 9
-71.015083 -38.799126 -4.7127495 63 10
-106.81182 -72.725601 -6.0192661 63 12
-34.799503 -21.283417 -2.1378195 31 11
-41.055836 -30.994011 -2.0957737 40 13
-98.441391 -53.783504 -3.917259 63 14
-19.158472 -13.044543 -0.53933269 20 16
-0.703605 -0.42678991 -0.38373742 11 0
-34.206139 -20.748621 -1.1643195 15 15
-6.0454206 -4.0838299 -2.0423028 67 1
-8.8903799 -5.3926907 -2.0796278 4 2
-19.28759 -13.02924 0 12 20
-11.882386 -8.0268431 -2.2308929 5 3
-14.727436 -8.9333086 -2.1925216 11 4
-15.996477 -10.806013 -2.0793965 14 5
-25.039589 -13.561452 -2.6582007 20 6
-35.009377 -23.649691 -2.9543262 46 8
-31.380222 -19.034489 -2.9961655 20 7
-34.758316 -26.040403 -2.7834322 29 9
-69.580238 -37.684685 -4.6083317 34 10
-106.99492 -72.277695 -6.0146132 63 12
-34.498177 -20.925766 -2.1145823 31 11
-98.961258 -53.597458 -3.9301023 63 14
-0.70501643 -0.42445427 -0.38373742 11 0
-34.774868 -20.936165 -1.1813084 15 15
-5.9821544 -4.0122666 -2.0164237 32 1
-8.9283752 -5.3753176 -2.0843346 6 2
-19.287506 -12.936244 0 12 20
-32.86557 -17.659302 -0.4343521 6 18
-11.915504 -7.9917989 -2.2321224 5 3
-13.526381 -8.1435404 -2.009685 5 4
-15.870383 -10.644361 -2.0584054 19 5
-25.13003 -13.502848 -2.6630335 20 6
-35.409058 -23.749065 -2.9813917 45 8
-31.538805 -18.987898 -3.0052783 20 7
-32.573822 -24.235582 -2.6020489 28 9
-68.209839 -36.650455 -4.5094953 33 10
-107.23402 -71.922493 -6.0146132 63 12
-34.721382 -20.903963 -2.1240027 31 11
-95.201508 -51.153599 -3.7740316 63 14
-23.131435 -15.514391 -0.6481111 6 16
-0.70960605 -0.42384994 -0.38542789 11 0
-34.823704 -20.800308 -1.1804938 15 15
-5.9961224 -3.9913616 -2.0164237 27 1
-8.9740238 -5.3602128 -2.0906105 6 2
-23.311594 -15.517529 0 8 20
-11.976227 -7.9720607 -2.2382717 3 3
-13.616042 -8.132905 -2.0187764 6 4
-16.102764 -10.71892 -2.0836804 19 5
-25.198099 -13.426288 -2.6652641 20 6
-35.368835 -23.543516 -2.9710679 45 8
-31.639118 -18.898144 -3.008533 20 7
-67.653664 -36.047859 -4.4643793 33 10
-107.64405 -71.65403 -6.0235472 63 12
-34.938164 -20.868675 -2.1327951 31 11
-32.665752 -17.405273 -1.2925378 12 14
-23.192106 -15.43799 -0.64829725 6 16
-0.70803565 -0.41939861 -0.38373742 11 0
-19.167107 -14.048762 -0.41480881 5 17
-6.0107107 -3.9693573 -2.0164237 22 1
-9.020607 -5.343276 -2.0968862 5 2
-23.288202 -15.379079 0 12 20
-30.586081 -16.153511 -0.40268838 12 18
-12.005364 -7.9281106 -2.2382717 7 3
-13.662829 -8.0930548 -2.021302 8 4
-16.155216 -10.668592 -2.0853939 19 5
-25.317572 -13.371038 -2.6726997 20 6
-35.541458 -23.470892 -2.9783225 45 8
-31.749331 -18.806433 -3.0124385 20 7
-35.415443 -25.958178 -2.8141322 30 9
-67.269798 -35.527382 -4.4304261 33 10
-108.30272 -71.521019 -6.0456963 63 12
-35.179382 -20.838194 -2.1428435 31 11
-30.908869 -16.323986 -1.2206448 12 14
-23.355314 -15.423398 -0.65127492 6 16
-0.71262091 -0.41876119 -0.38542789 11 0
-35.061283 -20.603249 -1.1835192 15 15
-6.0374174 -3.9567978 -2.0207369 25 1
-8.9918604 -5.2839346 -2.0859036 6 2
-23.104214 -15.142022 0 11 20
-32.959587 -17.260166 -0.43314144 13 18
-12.046191 -7.8948236 -2.2407315 6 3
-14.881518 -8.7449055 -2.1970673 6 4
-16.245583 -10.647017 -2.0922482 18 5
-25.318228 -13.258564 -2.6678667 16 6
-32.757622 -17.154402 0.4304873 11 22
-35.930218 -23.547916 -3.0039928 45 8
-31.935089 -18.766186 -3.0238295 20 7
-33.164307 -17.367373 -2.1802135 7 10
-108.60854 -71.179779 -6.0488601 63 12
-35.038387 -20.589794 -2.1298645 31 11
-32.885082 -17.221149 -1.2963068 12 14
-23.295294 -15.267252 -0.6481111 6 16
-0.7108739 -0.41456962 -0.38373742 11 0
-19.142344 -13.831312 -0.41222584 19 17
-6.0408177 -3.9304543 -2.0175021 24 1
-23.241467 -15.122046 0 12 20
-12.09218 -7.8677692 -2.2444208 5 3
-14.879584 -8.6775208 -2.1925216 13 4
-19.277866 -13.929233 0.13823056 6 21
-16.500807 -10.736239 -2.1205218 13 5
-25.383257 -13.185555 -2.6700974 20 6
-32.970497 -17.126812 0.43253613 11 22
-31.997141 -18.660189 -3.0238295 15 7
-35.591312 -25.716524 -2.8141322 30 9
-30.546257 -15.86752 -2.0046337 7 10
-71.296432 -41.578869 -4.3254623 63 11
-28.660183 -14.887782 -1.1278121 11 14
-0.71231681 -0.4120855 -0.38373742 11 0
-19.041018 -13.657178 -0.40901458 19 17
-6.054502 -3.9093418 -2.0175021 25 1
-8.5998335 -4.9751272 -1.9870607 41 2
-23.200026 -14.980064 0 11 20
-22.70396 -11.693307 -0.29731327 13 18
-10.874411 -7.0215168 -2.0138295 3 3
-14.944132 -8.6453953 -2.1975722 12 4
-16.488071 -10.646211 -2.1140959 13 5
-25.535353 -13.151569 -2.6812506 20 6
-33.21854 -17.108671 0.435004 11 22
-32.155262 -18.60228 -3.0326171 15 7
-35.761959 -25.65028 -2.8205278 30 9
-30.157709 -15.532239 -1.9755641 7 10
-71.461884 -41.341728 -4.3267188 63 11
-0.71689522 -0.41140091 -0.38542789 11 0
-18.925676 -13.474648 -0.40552413 19 17
-6.0713553 -3.8902624 -2.0185804 24 1
-8.6443644 -4.9606957 -1.9933363 32 2
-23.154507 -14.836409 0 11 20
-22.798071 -11.641267 -0.29801175 15 18
-12.183422 -7.8066111 -2.2511847 3 3
-15.001753 -8.6089764 -2.2016129 5 4
-19.143295 -13.629587 0.13657999 18 21
-16.615543 -10.646523 -2.1256626 15 5
-25.549183 -13.046053 -2.6779048 20 6
-33.135574 -16.919853 0.43314144 11 22
-36.422768 -23.338139 -3.0249197 45 8
-32.133553 -18.440313 -3.0244803 15 7
-18.992203 -13.522014 0.67850763 15 25
-36.293526 -25.840158 -2.8553207 30 9
-88.372917 -56.625549 -4.8891182 63 12
-71.643867 -41.113892 -4.3290215 63 11
-28.763426 -14.687325 -1.1278121 23 14
-0.72147739 -0.4106895 -0.38711837 11 0
-18.992189 -13.422355 -0.40594298 19 17
-6.0848966 -3.8690467 -2.0185804 27 1
-8.6479921 -4.9227314 -1.9901985 37 2
-23.388424 -14.871395 0 4 20
-22.863546 -11.574266 -0.2983377 15 18
-10.943175 -6.9581552 -2.017519 3 3
-17.155945 -9.7657471 -2.5127378 6 4
-19.220152 -13.583463 0.13678922 18 21
-16.686163 -10.609801 -2.1299462 15 5
-25.676289 -12.998168 -2.6864555 16 6
-36.766651 -23.377863 -3.0466838 45 8
-32.211586 -18.33593 -3.0257823 15 7
-19.062143 -13.471794 0.67932218 18 25
-36.33786 -25.681067 -2.8517389 30 9
-28.915127 -14.637773 -1.8874253 20 10
-71.811241 -40.877403 -4.3304868 63 11
-28.79668 -14.57781 -1.1271142 11 14
-34.477539 -21.922346 -0.9507181 29 16
-0.71659303 -0.40460375 -0.38373742 11 0
-19.006186 -13.333011 -0.40524489 23 17
-6.0983653 -3.8477829 -2.0185804 24 1
-8.6343832 -4.8751578 -1.9831382 35 2
-23.025354 -11.555385 -0.29992089 13 18
-12.267708 -7.7403488 -2.2567189 7 3
-17.196838 -9.7097034 -2.5137479 4 4
-19.113546 -13.408325 0.13569658 18 21
-16.716372 -10.547247 -2.1290896 13 5
-25.7749 -12.935257 -2.6920321 20 6
-22.582077 -11.332924 0.29414693 15 22
-36.864902 -23.260029 -3.048079 45 8
-32.351765 -18.266499 -3.0329423 15 7
-19.154877 -13.437319 0.68095124 22 25
-29.080257 -14.594067 -1.8948672 27 10
-34.485222 -21.758558 -1.8994006 47 12
-72.155251 -40.740398 -4.342629 63 11
-29.315437 -14.712092 -1.1454015 23 14
