# .PCD v0.7 - Point Cloud Data file format
VERSION 0.7
FIELDS x y z intensity ring
SIZE 4 4 4 4 2
TYPE F F F F U
COUNT 1 1 1 1 1
WIDTH 1289
HEIGHT 1
VIEWPOINT 0 0 0 1 0 0 0
POINTS 1289
DATA ascii
2.6014841 -7.7615089 -1.6371872 54 2
8.2627029 -29.336533 -0.35482022 5 18
3.6658144 -10.936931 -1.4682469 32 4
10.122432 -30.200201 -0.18512109 9 19
1.7894293 -4.5825582 -0.52991629 23 5
4.5672312 -16.215847 -1.5726137 42 6
8.471982 -30.079571 0.36380714 10 22
1.7895908 -4.5829716 -0.34403893 29 8
6.1778431 -18.431549 -1.5869329 7 7
9.7702618 -29.149506 0.53662658 12 23
9.0406456 -20.182261 -1.4172993 28 9
6.6752095 -23.700174 -1.4339409 18 10
10.024032 -29.906626 1.2850475 14 26
8.6031475 -25.667427 -1.4187232 16 11
1.8325769 -4.6930552 0.61860883 1 29
13.049784 -29.132227 -1.3005164 20 13
10.384561 -36.87014 -1.337628 13 14
1.1748211 -3.5481751 -1.7428777 13 0
13.966807 -31.488209 -0.60127032 15 17
1.7668378 -4.5741124 -1.3726777 2 1
2.5619237 -7.7374792 -1.6301271 62 2
8.6752567 -31.239607 -0.3774505 5 18
1.7702281 -4.5828896 -0.76433283 13 3
3.6306939 -10.965361 -1.4702673 33 4
31.537827 -71.102119 0.45207393 63 21
1.7683227 -4.5779567 -0.52863109 19 5
4.5045714 -16.220964 -1.5714984 36 6
8.3103094 -29.925432 0.36157206 10 22
1.7684683 -4.5783334 -0.34320185 30 8
6.1277914 -18.507053 -1.5914892 6 7
9.2610865 -27.970179 0.51428753 4 23
8.9811811 -20.2481 -1.4196017 28 9
6.6075349 -23.793737 -1.4381269 18 10
10.183191 -30.755102 1.3198929 14 26
8.5554714 -25.83909 -1.426469 24 11
12.941302 -29.176205 -1.3003535 41 13
10.238664 -36.869434 -1.3362319 12 14
1.1630484 -3.5520515 -1.7428777 9 0
13.920252 -31.666153 -0.60378343 15 17
14.03299 -42.857979 -1.3124485 17 15
1.7544121 -4.587142 -1.3748344 2 1
2.554559 -7.8018465 -1.6418941 52 2
1.783278 -4.6626158 0 66 20
8.3791599 -30.566156 -0.36897579 5 18
1.7521971 -4.5813508 -0.76310307 14 3
3.6103621 -11.026361 -1.4768331 31 4
31.226213 -71.03421 0.45098126 63 21
9.6574373 -29.494658 -0.18037857 9 19
1.7517112 -4.58008 -0.52820265 20 5
4.4433842 -16.208925 -1.5688961 40 6
1.7899381 -4.6800294 0.11659486 71 24
1.7504255 -4.5767183 -0.3426438 32 8
6.0949183 -18.614414 -1.5989747 10 7
9.2168179 -28.148968 0.51701009 4 23
8.9075613 -20.263153 -1.4185783 28 9
6.5148702 -23.765453 -1.4351038 18 10
1.7688495 -4.6248908 0.28836957 41 27
9.822464 -29.998665 1.2860246 14 26
1.759936 -4.6015849 -0.2294915 55 12
8.5120001 -25.996391 -1.4335867 16 11
12.865389 -29.266525 -1.3024703 20 13
10.094148 -36.822224 -1.3333004 12 14
1.7727958 -4.6352086 -0.11547823 102 16
1.153368 -3.5666389 -1.7479492 8 0
13.858359 -31.841642 -0.606157 15 17
13.929943 -43.076515 -1.3175685 17 15
1.7334991 -4.5827336 -1.3715996 1 1
2.5235326 -7.8036928 -1.6403252 59 2
1.7647613 -4.6653795 0 105 20
1.7353938 -4.5877423 -0.76310307 14 3
3.5430646 -10.956461 -1.4657216 27 4
30.850721 -70.884125 0.44930747 63 21
9.7855692 -30.260586 -0.18484211 9 19
1.7335055 -4.5827503 -0.52777433 20 5
4.4005671 -16.286621 -1.5748444 30 6
1.7671134 -4.6715975 0.11622265 100 24
6.6144929 -24.480419 0.29521787 15 22
1.7308156 -4.5756392 -0.34208575 34 8
12.747258 -29.288723 0.92961711 25 25
8.8459768 -20.324947 -1.4206251 28 9
6.4308462 -23.800739 -1.4358014 18 10
1.7603633 -4.6537528 0.28976491 58 27
9.9682322 -30.825445 1.3198929 14 26
1.7430584 -4.608005 -0.2294915 86 12
8.4559908 -26.149038 -1.4402856 24 11
1.7473931 -4.6194644 0.60642189 95 29
12.769199 -29.339136 -1.3036101 20 13
1.7572098 -4.6454158 -0.11557129 129 16
1.1409113 -3.5706429 -1.7479492 8 0
13.797792 -32.007347 -0.60839087 15 17
13.994897 -43.799004 -1.3381647 17 15
1.7161417 -4.5851483 -1.3705212 0 1
2.5082159 -7.8498154 -1.6481699 60 2
1.73164 -4.6265564 0 170 20
1.7179838 -4.5900702 -0.76248813 13 3
3.477021 -10.881827 -1.4541049 35 4
30.725031 -71.274208 0.45109755 63 21
9.4704828 -29.63921 -0.18084352 9 19
1.7174984 -4.5887733 -0.52777433 20 5
4.3426652 -16.298033 -1.5744727 34 6
1.7381802 -4.6440301 0.11538517 107 24
6.5691643 -24.654089 0.29703388 7 22
1.7176309 -4.5891271 -0.3426438 32 8
5.959136 -18.649956 -1.5983238 28 7
12.637032 -29.31468 0.92903531 12 25
9.0102863 -28.198961 0.51673084 9 23
8.7575951 -20.31538 -1.4178109 23 9
6.3446445 -23.811466 -1.4351038 18 10
1.7427086 -4.6561289 0.28953233 102 27
9.6489096 -30.197622 1.2915606 14 26
1.7185595 -4.591608 -0.22837476 56 12
8.3816853 -26.231667 -1.4432166 24 11
1.7326494 -4.6292534 0.60690933 103 29
12.650889 -29.346827 -1.3019818 20 13
9.9096518 -37.190948 -1.3440495 13 14
1.7423854 -4.6552658 -0.11566433 111 16
1.1273485 -3.5711467 -1.7462587 6 0
7.2599287 -17.004217 -0.32272989 2 17
13.908116 -44.057293 -1.3445644 18 15
1.7068138 -4.6091728 -1.3759127 0 1
2.4949679 -7.903409 -1.6575835 59 2
1.7321479 -4.6775866 0 110 20
1.703323 -4.5997462 -0.76310307 13 3
3.4390135 -10.893899 -1.4541049 27 4
1.7014695 -4.5947413 -0.52777433 19 5
4.2685423 -16.247612 -1.5681525 22 6
1.7316791 -4.6763206 0.11603655 100 24
8.0349712 -30.584 0.36813763 10 22
1.7016007 -4.5950952 -0.3426438 30 8
5.8819942 -18.632626 -1.5950692 28 7
7.2658114 -17.017996 0.53852397 1 25
8.9117947 -28.230246 0.51673084 9 23
7.2446008 -16.968315 -1.1824471 6 9
5.7369032 -21.836723 -1.3148721 25 10
1.7250577 -4.6584396 0.28929979 58 27
9.381011 -29.7166 1.2695788 14 26
1.713621 -4.6275558 -0.22986375 55 12
8.2744322 -26.211246 -1.440495 24 11
1.7151006 -4.6315513 0.60642189 103 29
7.247169 -16.974331 -0.75194496 4 13
1.7164036 -4.6350698 -0.11501297 73 16
1.1172049 -3.5781314 -1.7479492 4 0
13.841144 -44.329765 -1.3515463 18 15
1.6989568 -4.6325932 -1.3813041 0 1
2.4596059 -7.8775105 -1.6505232 59 2
1.7133129 -4.6717381 0 103 20
5.6554031 -21.805012 -0.26225033 21 18
1.6929471 -4.6162062 -0.76494777 12 3
3.4083211 -10.916012 -1.4556202 33 4
9.2665462 -29.678461 -0.18070403 9 19
1.6897655 -4.6075306 -0.52863109 18 5
4.3334641 -16.708134 -1.6112784 14 6
1.7059647 -4.6517015 0.11529212 31 24
5.6523905 -21.793394 0.26211065 3 22
1.6899046 -4.6079102 -0.34320185 29 8
5.8127375 -18.616762 -1.5921401 28 7
8.7253227 -27.945055 0.51100647 9 23
7.1897035 -16.987316 -1.1821913 6 9
6.2046251 -23.922594 -1.4392897 19 10
1.702165 -4.6413407 0.28790444 25 27
1.7018268 -4.6404185 -0.23023601 29 12
8.1956205 -26.248549 -1.441123 24 11
1.7019089 -4.6406426 0.60690933 86 29
7.1922503 -16.993334 -0.75178212 4 13
1.7059647 -4.6517015 -0.11529212 48 16
1.1057764 -3.5854738 -1.7496397 3 0
7.1377177 -17.029858 -0.32231104 5 17
12.29471 -39.865528 -1.2141227 16 15
1.6998529 -4.6855688 -1.3953221 0 1
2.4320931 -7.8860483 -1.6505232 60 2
1.7024512 -4.6927309 0 26 20
1.6795189 -4.629519 -0.76617759 15 3
3.3713658 -10.931635 -1.4561253 35 4
7.1603308 -17.083811 0.10765989 5 21
8.997859 -29.175507 -0.17744936 8 19
1.6790968 -4.6283555 -0.53034461 17 5
4.2040939 -16.445339 -1.5845106 12 6
1.7006269 -4.6877022 0.11603655 13 24
7.8022389 -30.520363 0.3667407 10 22
1.6792527 -4.6287851 -0.34431797 26 8
5.7347927 -18.595032 -1.58856 27 7
7.1589675 -17.080559 0.53898942 3 25
8.8823109 -28.800844 0.52608532 24 23
6.1200933 -23.940239 -1.4390571 16 10
1.6954859 -4.6735315 0.28953233 8 27
9.2402573 -29.961481 1.2773945 14 26
8.1416168 -26.399145 -1.4478221 24 11
1.6829915 -4.639091 0.60593444 54 29
12.393335 -29.569221 -1.3062153 20 13
9.6722698 -37.835445 -1.3637327 13 14
1.0909458 -3.586225 -1.7479492 1 0
12.667907 -30.552862 -0.57732564 14 17
1.7039447 -4.7537036 -1.4136533 0 1
2.4017949 -7.8953295 -1.6505232 53 2
7.8947778 -31.38406 -0.37675205 23 18
1.6750671 -4.67314 -0.77232671 7 3
3.3513081 -11.016628 -1.4657216 32 4
1.6720484 -4.6647186 -0.53377175 10 5
4.1477189 -16.4884 -1.587113 14 6
1.6708921 -4.6614928 -0.34627113 11 8
5.6552286 -18.590218 -1.5862818 24 7
12.352074 -29.791126 0.93857694 25 25
8.8205452 -28.995443 0.52901739 12 23
8.4547453 -20.391426 -1.4147409 28 9
6.0515046 -24.056507 -1.4446385 16 10
9.125145 -29.996742 1.2773945 14 26
8.0262403 -26.384354 -1.4453099 24 11
12.278176 -29.6129 -1.3060524 20 13
9.5698318 -38.042892 -1.3698751 13 14
1.079674 -3.5896342 -1.7479492 1 0
21.644268 -52.669418 -0.99394947 50 17
9.0471964 -30.079569 -0.91414094 28 15
2.3735898 -7.8915663 -1.6481699 60 2
7.8481736 -31.618328 -0.3792665 5 18
3.4912872 -9.8372612 -1.6239767 9 3
3.3761122 -11.224692 -1.4919854 25 4
12.37439 -30.111986 0.18921266 13 21
8.6430321 -28.735826 -0.17440392 8 19
3.9386179 -11.097688 -1.2684575 18 5
4.0325742 -16.246233 -1.5625757 8 6
7.0667086 -19.911585 -1.477442 27 8
5.5899076 -18.584984 -1.5843291 24 7
12.259938 -29.833479 0.93869334 12 25
8.6487732 -28.754915 0.5241307 12 23
8.3891239 -20.414194 -1.4144851 28 9
5.9739742 -24.067648 -1.4441735 19 10
9.424365 -26.554661 -1.3125499 20 12
7.9628701 -26.474466 -1.4488688 24 11
12.201793 -29.691988 -1.3078437 20 13
9.5552387 -38.495667 -1.3850913 13 14
14.614832 -41.179634 -1.0167853 29 16
1.0661054 -3.5899055 -1.7462587 0 0
21.577858 -53.033611 -0.99939466 50 17
8.9444237 -30.118631 -0.9143737 19 15
1.9555746 -5.5717707 -1.6530362 0 1
2.3571956 -7.9374042 -1.6560146 59 2
10.238553 -29.171412 0 10 20
15.484072 -63.326035 -0.75895214 29 18
3.4569283 -9.8493881 -1.6239767 9 3
3.3188372 -11.175548 -1.4839042 26 4
12.290313 -30.206873 0.18953815 13 21
8.5199003 -28.689133 -0.17393896 3 19
3.9169784 -11.160151 -1.2740266 28 5
10.301998 -29.352179 0.72385585 26 24
7.0011277 -19.947426 -1.4782792 27 8
5.5113821 -18.558523 -1.5804237 27 7
8.6747313 -29.210493 0.53187954 12 23
7.9206553 -19.46722 -1.3469459 22 9
5.901309 -24.134899 -1.446964 19 10
10.862623 -30.949497 1.9102159 19 27
8.9248648 -30.052769 1.2772318 14 26
9.3607283 -26.670338 -1.3166447 20 12
7.9124866 -26.643782 -1.4566145 16 11
8.8617945 -29.840393 2.5411754 38 28
12.212552 -30.015755 -1.3202187 20 13
10.437081 -29.737053 -0.73334724 13 16
1.0559984 -3.6042261 -1.7513301 0 0
21.410217 -53.179115 -1.0006511 50 17
13.371247 -45.637383 -1.3840113 18 15
1.9565992 -5.6407671 -1.6713673 0 1
2.3247788 -7.9346981 -1.6536611 60 2
10.176134 -29.337231 0 10 20
3.4221008 -9.8657265 -1.6245917 7 3
3.2376895 -11.050552 -1.4657216 30 4
12.158599 -30.199764 0.18921266 13 21
8.3280926 -28.424597 -0.1721489 10 19
3.8473752 -11.091769 -1.2646021 24 5
3.9124901 -16.259184 -1.5610888 14 6
10.299188 -29.691986 0.73130006 26 24
6.9253545 -19.965414 -1.4777212 27 8
5.4444447 -18.582424 -1.5807492 24 7
11.77437 -29.245409 0.91751546 12 25
8.624959 -29.437832 0.53543985 12 23
8.2458115 -20.481108 -1.4149967 28 9
5.8436394 -24.284485 -1.4546384 19 10
10.79099 -31.109827 1.9176576 19 27
8.7786942 -29.962545 1.2720212 14 26
9.2576752 -26.689365 -1.3159002 20 12
7.8080387 -26.649603 -1.4553584 24 11
9.3552847 -38.877872 -1.3963987 19 14
21.381887 -53.621315 -1.0076321 50 17
13.266514 -45.842777 -1.3888985 18 15
2.3006339 -7.9498992 -1.65523 60 2
10.086579 -29.393517 0 10 20
9.7933235 -41.29987 -0.49414071 13 18
3.3944967 -9.8919754 -1.6270514 8 3
3.193305 -11.034547 -1.4621861 39 4
12.077647 -30.288221 0.18951489 13 21
8.9721022 -31.003328 -0.18758534 9 19
3.8415518 -11.194748 -1.2748834 21 5
4.0368214 -17.023861 -1.6332133 16 6
6.8500404 -19.961849 -1.4757679 27 8
5.3739266 -18.56974 -1.5781455 23 7
11.564773 -29.002039 0.90867198 12 25
8.4839315 -29.316442 0.53271729 12 23
8.1778488 -20.508339 -1.4149967 17 9
5.7630763 -24.30373 -1.4546384 16 10
8.9270439 -30.847626 1.3083322 14 26
9.187274 -26.772833 -1.3185059 20 12
7.726284 -26.69837 -1.4566145 16 11
12.24104 -30.697977 -1.3464341 21 13
9.2226181 -38.893124 -1.3958403 13 14
11.920904 -30.216564 -0.56699383 14 17
13.16864 -46.137157 -1.3963457 18 15
2.2800937 -7.9884515 -1.6615058 61 2
9.9826355 -29.44165 0 10 20
9.6627874 -41.425072 -0.49521169 13 18
3.3620267 -9.9155788 -1.6288961 7 3
3.1539297 -11.049992 -1.4626912 43 4
12.120688 -30.722967 0.19195589 13 21
8.8748798 -31.0937 -0.18793406 9 19
3.8030508 -11.216285 -1.2757401 21 5
3.9753048 -17.042421 -1.633585 18 6
10.02873 -29.577595 0.72674054 26 24
6.7678642 -19.960367 -1.4738147 27 8
5.3036418 -18.581644 -1.5774945 21 7
1.8150903 -4.6008081 0.14393997 2 25
5.7120609 -24.488022 -1.4644058 16 10
10.487632 -30.931028 1.9020765 19 27
8.6033106 -30.142241 1.277069 14 26
9.1339951 -26.938766 -1.3250203 20 12
7.6678481 -26.86479 -1.4641509 25 11
9.1226902 -39.109638 -1.4024014 19 14
10.118616 -29.842695 -0.73325419 13 16
0.1268619 -0.45011899 -0.21807104 2 0
13.083902 -46.423023 -1.4036765 18 15
2.2546544 -7.9997444 -1.6622903 56 2
9.9052982 -29.535273 0 10 20
18.399578 -80.079826 -0.95657116 63 18
3.3341537 -9.9416628 -1.6313556 7 3
3.1377211 -11.132955 -1.4722875 30 4
3.7873323 -11.292934 -1.2830228 17 5
3.9357123 -17.129259 -1.6406487 16 6
9.791995 -29.197428 0.7165978 26 24
6.7029047 -19.986486 -1.4740939 27 8
5.2311788 -18.560757 -1.57424 21 7
6.8491306 -24.301414 0.44070816 23 23
1.7809199 -4.5584173 -0.31364781 17 9
5.6317177 -24.510723 -1.4646384 16 10
10.4396 -31.128433 1.9120762 19 27
9.0967026 -27.124228 -1.3326514 20 12
7.5689664 -26.855467 -1.4622667 25 11
8.9875755 -39.116302 -1.4015639 19 14
9.9789095 -29.754763 -0.73027653 12 16
11.337862 -40.800034 -1.2323914 16 15
2.2221684 -7.9966173 -1.6599369 53 2
9.8410072 -29.704275 0 10 20
18.080389 -80.033585 -0.95522082 63 18
3.3051512 -9.9763279 -1.6350452 8 3
3.1351421 -11.282013 -1.4904702 21 4
3.6346016 -10.970747 -1.2448962 19 5
3.8825579 -17.186302 -1.6447383 14 6
9.5993967 -28.974993 0.71027023 26 24
20.498863 -90.739067 1.0829933 63 22
6.633369 -20.022282 -1.4749309 27 8
5.1503062 -18.533712 -1.5703344 18 7
6.7782187 -24.391861 0.44189495 15 23
1.7613224 -4.557467 -0.31313616 17 9
5.5444832 -24.542883 -1.465336 16 10
10.184784 -30.741938 1.8860301 19 27
5.9839106 -21.533491 0.91054058 22 26
9.0072775 -27.187731 -1.3341404 10 12
7.4854589 -26.936911 -1.4651976 16 11
8.8996429 -39.394634 -1.4103585 19 14
10.060942 -30.36813 -0.74442047 13 16
11.213347 -40.904919 -1.2343696 16 15
2.1973526 -8.0156736 -1.6622903 58 2
9.7422419 -29.753649 0 10 20
17.766205 -79.940033 -0.95335817 63 18
3.2727675 -9.9953156 -1.6362749 8 3
3.0779083 -11.227832 -1.481884 31 4
1.7661015 -4.6177049 0.028734103 58 21
3.5764849 -10.922894 -1.238042 26 5
3.8285925 -17.226967 -1.6473408 14 6
9.337677 -28.518074 0.69826645 26 24
6.5696487 -20.064276 -1.476326 27 8
5.0992832 -18.601561 -1.5745654 15 7
1.7582424 -4.597156 0.14324179 69 25
6.7162976 -24.500229 0.44343075 11 23
1.7425516 -4.5561304 -0.31262445 17 9
5.4388552 -24.472431 -1.4599872 13 10
10.046351 -30.682426 1.880216 19 27
5.8759542 -21.434759 0.90549284 22 26
8.9309731 -27.275967 -1.3369323 10 12
7.4346862 -27.120825 -1.4737808 16 11
1.7732337 -4.636353 -0.20223379 76 13
8.8011055 -39.601067 -1.4166404 20 14
14.073711 -42.982334 -1.0524244 29 16
1.7384092 -4.5932918 -0.085726224 64 17
6.6278911 -24.513021 -0.73901594 3 15
2.1673107 -8.0157223 -1.6607213 59 2
17.474234 -79.942947 -0.95265979 63 18
3.239073 -10.010441 -1.6368899 8 3
3.0552661 -11.299794 -1.4899651 33 4
1.7428923 -4.6051369 0.028617866 63 21
6.6358056 -24.542294 -0.1477621 9 19
3.5640447 -11.014773 -1.2470381 23 5
3.7726867 -17.259682 -1.6491997 14 6
6.4971108 -20.079493 -1.4757679 27 8
5.0468049 -18.66543 -1.5784709 14 7
1.7379383 -4.5920477 0.1428927 102 25
5.8133726 -21.500553 0.38876981 13 23
1.7252237 -4.5584526 -0.31236866 17 9
5.3985887 -24.698029 -1.4723127 16 10
9.9588537 -30.778099 1.8839371 19 27
5.7405891 -21.231367 0.89604872 22 26
8.8775272 -27.436232 -1.3432605 10 12
6.6007581 -24.41267 -1.3253559 31 11
25.149736 -93.015419 7.8659921 63 28
1.7471356 -4.6163492 -0.20109397 88 13
8.6653748 -39.643261 -1.4170591 20 14
13.986369 -43.225239 -1.0571703 29 16
1.7335861 -4.6292953 -0.086284697 109 17
6.5453773 -24.547596 -0.73936498 3 15
2.1372969 -8.0156584 -1.6591524 61 2
17.190035 -79.979996 -0.95238036 63 18
3.2065182 -10.029215 -1.6381197 8 3
3.0178497 -11.318058 -1.4909753 32 4
1.7169877 -4.5849719 0.028455133 106 21
8.0969362 -30.36652 -0.18265684 9 19
3.5401084 -11.072604 -1.2521788 17 5
3.7182748 -17.300001 -1.6518022 14 6
9.0762482 -28.388313 0.69352078 13 24
6.4731588 -20.246477 -1.4863709 21 8
5.0031915 -18.763828 -1.5853056 15 7
1.7317141 -4.6242967 0.14370723 114 25
5.7341666 -21.505257 0.38849056 13 23
1.7079015 -4.5607085 -0.31211281 17 9
5.2888498 -24.607409 -1.4658011 13 10
5.6798315 -21.301479 0.89816552 27 26
8.8242922 -27.600258 -1.3497748 10 12
7.2842741 -27.318735 -1.4817358 16 11
24.723223 -92.721275 7.8337722 63 28
1.7338146 -4.6299057 -0.20141965 77 13
8.5126629 -39.606831 -1.4146861 20 14
13.962053 -43.66993 -1.0668476 29 16
1.7035211 -4.597816 -0.0855866 67 17
12.561445 -47.779446 -1.4377706 19 15
2.1252608 -8.083765 -1.6717038 59 2
9.3650703 -29.648067 0 10 20
16.899998 -79.98864 -0.95177501 63 18
3.1750615 -10.051653 -1.6399643 7 3
2.9652076 -11.278636 -1.4844093 34 4
1.7107003 -4.6171923 0.028617866 63 21
3.485863 -11.035593 -1.2466097 24 5
3.6669195 -17.355736 -1.6558915 14 6
8.8855562 -28.130016 0.68644875 13 24
6.485498 -30.696226 0.36525065 21 22
6.4324923 -20.364073 -1.4933466 28 8
4.9559088 -18.850582 -1.5911638 18 7
1.7072269 -4.6078176 0.14300907 75 25
5.6570296 -21.517406 0.38835093 19 23
1.6933581 -4.5703855 -0.31236866 16 9
5.2441945 -24.821068 -1.4774289 16 10
9.4310188 -29.856848 1.8234724 18 27
5.6206827 -21.379156 0.90060794 27 26
8.71947 -27.604219 -1.348472 10 12
7.1858211 -27.332405 -1.4811077 8 11
5.6837344 -21.618982 1.8248426 6 28
1.7106998 -4.6171908 -0.20060551 59 13
8.387578 -39.698883 -1.4169196 20 14
13.854096 -43.859489 -1.0702906 29 16
1.6959571 -4.6219177 -0.085935652 38 17
2.0968988 -8.0790119 -1.6693505 54 2
3.1470046 -10.072896 -1.6418091 8 3
2.9307578 -11.291736 -1.4849143 25 4
1.6961868 -4.6225438 0.028617866 21 21
4.3489585 -13.920096 -1.5708996 9 5
3.623733 -17.421761 -1.6610966 14 6
8.8806181 -28.424982 0.69296247 13 24
5.9166164 -28.445219 0.33824334 9 22
6.3780065 -20.41465 -1.4955788 28 8
4.8886518 -18.835184 -1.58856 15 7
1.69412 -4.6169114 0.14312543 36 25
5.6587324 -21.802179 0.39316782 22 23
1.6831169 -4.586925 -0.31313616 15 9
5.1637535 -24.825691 -1.4767313 13 10
5.5374279 -21.334812 0.89800268 22 26
8.6100702 -27.559013 -1.3449357 10 12
1.7058237 -4.6488066 -0.2017453 31 13
13.783025 -44.116547 -1.0755016 29 16
1.6885523 -4.6544199 -0.086424313 23 17
1.7652187 -5.7237129 -1.6767588 0 1
2.0643582 -8.0752439 -1.6669971 60 2
8.9107761 -28.893147 0 20 20
8.8096914 -43.14682 -0.51267332 13 18
3.1088982 -10.080586 -1.6411942 7 3
2.8647811 -11.206293 -1.4722875 27 4
1.6956016 -4.673851 0.028896837 11 21
4.2791548 -13.875137 -1.5640454 9 5
3.5431206 -17.352978 -1.6532892 12 6
6.3219528 -20.498899 -1.5000433 21 8
4.8432803 -18.945677 -1.5963711 19 7
5.5867071 -21.853773 0.39372629 16 23
1.6703773 -4.604321 -0.31390366 14 9
5.0895004 -24.926613 -1.4816149 16 10
9.1546068 -29.683765 1.8090539 18 27
5.4878979 -21.467257 0.90272474 18 26
8.672678 -28.121117 -1.3708069 10 12
7.1588931 -28.003765 -1.5148121 17 11
5.5403962 -21.672619 1.8261443 18 28
9.228919 -29.924725 -0.72869462 12 16
10.714606 -42.499622 -1.2755618 17 15
1.7518439 -5.7479577 -1.6821502 0 1
2.0442812 -8.1086674 -1.6724885 51 2
8.9012117 -29.205675 0 10 20
16.05637 -79.990906 -0.94981933 63 18
3.0789104 -10.102181 -1.643039 7 3
2.8246949 -11.204188 -1.4707724 33 4
7.9301934 -31.455212 -0.18853851 9 19
3.5090723 -17.481775 -1.6644425 12 6
8.7903805 -28.842028 0.70161635 26 24
5.7155261 -28.474064 0.33810362 13 22
6.2539434 -20.519751 -1.5000433 28 8
4.7853026 -18.980963 -1.5979984 16 7
5.4878106 -21.767469 0.39184144 26 23
1.66724 -4.6436472 -0.3162061 6 9
5.0123167 -24.970758 -1.4832428 13 10
9.0561247 -29.713959 1.8090539 18 27
5.4987526 -21.810871 0.9164024 18 26
8.5782166 -28.145899 -1.3706208 10 12
7.0913815 -28.128056 -1.5202551 17 11
5.5133305 -21.868696 1.8411154 12 28
11.479647 -31.973457 -1.3840476 21 13
8.0474405 -40.091377 -1.4279478 20 14
13.613432 -44.666893 -1.0865748 29 16
12.003586 -48.359432 -1.450105 19 15
1.7085752 -5.6805663 -1.6605843 0 1
2.0136025 -8.112299 -1.6717038 55 2
8.7814322 -29.195967 0 10 20
8.5376253 -43.356396 -0.51444274 13 18
3.0452781 -10.124754 -1.6448838 8 3
2.7816982 -11.206763 -1.4697622 31 4
3.3803418 -11.238752 -1.2641737 19 5
3.4457433 -17.498426 -1.6648142 12 6
9.0577927 -30.114794 0.73176533 26 24
5.5740309 -28.306452 0.33586854 18 22
6.1694965 -20.511963 -1.497811 28 8
4.7147403 -18.994505 -1.5976729 14 7
5.4147353 -21.81461 0.39233011 22 23
7.5514412 -21.27739 -1.4469755 23 9
4.9616499 -25.196615 -1.4955683 19 10
9.0150146 -29.972569 1.8227746 18 27
5.547792 -22.35066 0.93822145 14 26
8.4945621 -28.242197 -1.3737849 10 12
6.9930496 -28.173241 -1.5213017 25 11
11.347676 -31.973888 -1.3822565 21 13
7.9212961 -40.226505 -1.4317169 20 14
10.391957 -29.60849 -0.54772633 14 17
11.901181 -48.672913 -1.4582503 31 15
1.989931 -8.1383295 -1.6756263 51 2
15.469893 -80.033073 -0.94898117 63 18
3.0076673 -10.127746 -1.6436539 7 3
2.7774332 -11.359019 -1.4884498 33 4
11.060999 -31.514706 0.19411793 14 21
7.6744986 -31.386816 -0.18779457 9 19
3.3626022 -11.322921 -1.272313 6 5
3.3906879 -17.541634 -1.6677884 14 6
8.5211525 -28.693354 0.69649839 13 24
5.461525 -28.255051 0.33503038 13 22
6.1012669 -20.544851 -1.498648 21 8
4.6493549 -19.014721 -1.5979984 16 7
10.239515 -29.174156 0.89982837 36 25
7.4027319 -30.275358 0.54402643 36 23
7.5035625 -21.378952 -1.4520921 23 9
4.8653302 -25.170656 -1.4930102 13 10
8.9262514 -30.057449 1.8260305 18 27
8.1104126 -27.310266 -1.3270676 10 12
6.9060483 -28.244043 -1.5238138 25 11
11.245262 -32.039703 -1.3833964 21 13
7.8020725 -40.363811 -1.4356257 20 14
14.590418 -42.015987 -0.77635282 33 17
9.9626446 -41.338436 -1.2375113 16 15
1.6698699 -5.6920648 -1.6605843 3 1
1.9509861 -8.0953112 -1.6654282 54 2
8.4394979 -28.767611 0 8 20
8.5362568 -44.961742 -0.53278911 13 18
2.9785168 -10.152833 -1.6461135 7 3
2.7211573 -11.291016 -1.4783484 28 4
3.3414149 -17.599733 -1.6722498 14 6
8.5542879 -29.158897 0.70710641 26 24
5.365562 -28.261219 0.33489069 4 22
6.0252423 -20.53817 -1.4966949 21 8
4.5853415 -19.026155 -1.5976729 19 7
10.752615 -30.964277 0.95393676 13 25
7.2610679 -30.128664 0.54095483 12 23
7.4561982 -21.471594 -1.456697 23 9
4.8019471 -25.292576 -1.4992893 16 10
8.3426218 -28.437393 -1.3804854 10 12
6.8095446 -28.25514 -1.5231858 25 11
11.125844 -32.039062 -1.381768 21 13
13.425245 -45.762466 -1.1097449 29 16
10.182387 -29.655842 -0.54730743 14 17
1.6349908 -5.64606 -1.645488 4 1
1.9353954 -8.1555014 -1.6764107 52 2
8.2489071 -28.485682 0 4 20
8.4078178 -45.144619 -0.53460515 13 18
2.9507542 -10.189743 -1.6504178 9 3
2.7009678 -11.381522 -1.488955 33 4
10.096737 -29.406389 0.18070403 12 21
21.731844 -91.575119 -0.54701734 63 19
3.2987273 -11.391387 -1.2774537 18 5
3.2887099 -17.658274 -1.6767111 16 6
5.9601736 -20.582071 -1.4983691 28 8
4.5225816 -19.057562 -1.5989747 19 7
10.188718 -29.67428 0.91309375 12 25
7.1927924 -30.309479 0.54374719 24 23
7.3630533 -21.444633 -1.4531155 17 9
4.7099738 -25.289557 -1.4981264 13 10
8.8003149 -30.389841 1.8425419 18 27
8.2622004 -28.531588 -1.3836496 10 12
6.7210188 -28.321487 -1.5254886 25 11
11.002255 -32.043682 -1.3803025 21 13
13.237615 -45.713024 -1.1074185 29 16
9.6710777 -41.395302 -1.2371624 33 15
1.6205647 -5.6702514 -1.6508795 5 1
1.9095925 -8.173666 -1.6787641 48 2
8.226366 -28.783522 0 4 20
14.608306 -79.987457 -0.94660634 63 18
2.9140813 -10.196181 -1.6498029 8 3
2.6603193 -11.387017 -1.4884498 48 4
10.348892 -30.486853 0.18712039 13 21
21.275555 -91.06617 -0.54353023 63 19
3.2283435 -11.295765 -1.2654588 19 5
3.2478013 -17.783264 -1.6874926 22 6
8.2856779 -28.991051 0.70161635 26 24
5.1853771 -28.39242 0.33600825 13 22
5.8806167 -20.575897 -1.496416 28 8
4.4524021 -19.057705 -1.5976729 21 7
7.114244 -30.451239 0.54584146 12 23
7.2997012 -21.504225 -1.4554179 23 9
4.6288419 -25.345123 -1.5004519 13 10
20.979139 -89.797417 3.7569568 63 26
8.2251415 -28.779238 -1.3942586 10 12
6.6430187 -28.434242 -1.5303035 25 11
20.834414 -89.17794 7.4760938 63 28
10.881344 -32.055405 -1.3791628 21 13
7.4362974 -40.717285 -1.4453975 20 14
8.5010624 -29.744665 -0.71985465 12 16
9.5175591 -41.389835 -1.2359986 16 15
1.5944885 -5.6536298 -1.6444098 6 1
1.8740171 -8.1497011 -1.6724885 53 2
11.479275 -64.12014 -0.7583468 29 18
2.8816903 -10.217704 -1.6516477 8 3
2.6250007 -11.415569 -1.4909753 55 4
10.250044 -30.545542 0.18725987 13 21
20.930647 -91.022926 -0.54283279 63 19
3.1629853 -11.2151 -1.2551775 27 5
3.1843021 -17.786654 -1.6867491 22 6
8.2669239 -29.312304 0.70868832 26 24
5.1109061 -28.548147 0.33763799 9 22
5.8076735 -20.592459 -1.4961369 28 8
4.3858504 -19.07313 -1.5976729 20 7
9.7434425 -29.035851 0.891334 24 25
7.2423706 -21.582556 -1.4589995 23 9
4.5537124 -25.435812 -1.5048705 13 10
6.0385475 -21.411076 1.29557 10 27
20.603754 -89.601341 3.7457216 63 26
8.1625929 -28.942373 -1.400773 23 12
6.5204487 -28.356041 -1.5248606 17 11
20.522993 -89.250122 7.4760938 63 28
10.749038 -32.032566 -1.3765576 21 13
7.3286409 -40.935814 -1.452238 20 14
13.131992 -46.562534 -1.1257499 29 16
9.9103136 -29.878521 -0.54947156 14 17
11.248164 -49.709713 -1.4832681 31 15
1.5695813 -5.6406064 -1.6390183 6 1
1.8568125 -8.2059269 -1.6826866 52 2
8.2836504 -29.768965 0 10 20
14.043322 -80.05204 -0.94618732 63 18
2.8470669 -10.231507 -1.6522626 8 3
2.6131616 -11.548509 -1.5071377 35 4
9.5187664 -28.69805 0.17572904 12 21
20.534235 -90.748222 -0.54076374 63 19
3.1781929 -11.421475 -1.2770253 13 5
3.1228855 -17.801582 -1.6871208 38 6
6.8213081 -24.513742 0.59209347 12 24
5.7496653 -20.662579 -1.4997642 28 8
4.321888 -19.099989 -1.5986493 19 7
9.5639896 -28.834393 0.88411957 36 25
7.1544251 -21.569817 -1.4564413 23 9
4.4552402 -25.396488 -1.5016147 16 10
5.9584217 -21.412786 1.2944072 5 27
20.221189 -89.364769 3.7328579 63 26
8.0775852 -29.028429 -1.4035648 23 12
6.4390621 -28.456549 -1.5290475 17 11
20.106634 -88.858498 7.4373641 63 28
10.627095 -32.039539 -1.3752549 21 13
7.1898513 -40.984768 -1.4530754 20 14
20.29187 -89.677132 16.763815 63 30
11.388143 -40.925583 -0.98849732 29 16
9.899394 -30.197966 -0.55470729 14 17
11.11367 -49.924301 -1.4885045 31 15
1.5498823 -5.6460509 -1.6390183 9 1
1.8221906 -8.1855583 -1.6771951 56 2
8.309926 -30.272148 0 10 20
13.76109 -80.084808 -0.94600105 63 18
2.8176122 -10.264253 -1.6559521 8 3
2.5374827 -11.398759 -1.4864296 39 4
20.152149 -90.526527 -0.53902018 63 19
3.036186 -11.060493 -1.2354716 27 5
3.0580289 -17.796677 -1.6856338 48 6
5.9227133 -21.575794 0.52062911 10 24
15.01961 -87.408966 1.0325176 63 22
5.6679969 -20.647892 -1.4972529 28 8
4.2603874 -19.138309 -1.600602 18 7
9.3985138 -28.670036 0.87806869 24 25
26.615902 -119.56269 2.1380594 63 23
7.0815749 -21.602247 -1.4569528 17 9
4.3841443 -25.51421 -1.5076612 14 10
5.8963251 -21.479666 1.2971979 5 27
19.836172 -89.107109 3.7191803 63 26
8.0671701 -29.387817 -1.4195715 24 12
6.3396902 -28.478853 -1.5290475 17 11
10.510211 -32.061253 -1.3746036 21 13
7.0975165 -41.305103 -1.4635453 20 14
19.906031 -89.420921 16.702827 63 30
9.4905367 -43.309582 -1.2903397 17 15
1.5402163 -5.6846199 -1.6487229 8 1
1.7874798 -8.157073 -1.670135 61 2
8.3925533 -30.975178 0 21 20
13.486141 -80.074776 -0.9453491 63 18
2.7856262 -10.28117 -1.657182 9 3
2.528547 -11.538896 -1.5036021 29 4
9.0765247 -28.001171 0.1710795 7 21
19.787624 -90.29982 -0.53727663 63 19
3.0421326 -11.227882 -1.2530355 19 5
2.9943655 -17.779224 -1.6830314 40 6
6.6752052 -24.636803 0.5939545 12 24
5.5984502 -20.662722 -1.4969739 28 8
4.1900711 -19.121178 -1.5979984 20 7
9.3650312 -28.891216 0.88388675 36 25
7.0197458 -21.655987 -1.4589995 23 9
4.3028274 -25.548296 -1.508824 14 10
5.8532581 -21.603167 1.303477 5 27
6.7139964 -30.638981 1.2778831 14 26
6.6332078 -24.481798 -1.1815183 9 12
6.2879672 -28.694818 -1.5395147 17 11
10.387812 -32.046505 -1.3724868 21 13
6.9372673 -41.190441 -1.4586594 20 14
19.470404 -88.852196 16.584446 63 30
6.6386032 -24.501711 -0.59069771 11 16
9.6249294 -30.06827 -0.55107719 14 17
9.3502483 -43.430061 -1.2928996 17 15
1.5183773 -5.6865058 -1.6476448 12 1
1.7683027 -8.2134171 -1.6803331 52 2
6.5629101 -24.57889 0 10 20
13.193861 -80.131561 -0.94544226 63 18
2.747925 -10.29131 -1.657182 8 3
2.49793 -11.602393 -1.5106732 25 4
9.1177282 -28.483772 0.17382273 7 21
9.2109318 -42.782963 -0.25435263 18 19
3.0050638 -11.254326 -1.2547492 16 5
2.9233575 -17.754713 -1.6796852 40 6
5.5257683 -20.694668 -1.497811 21 8
4.1300297 -19.183174 -1.6019039 20 7
8.9726257 -28.030474 0.85654169 10 25
6.9500618 -21.711987 -1.4610462 30 9
4.2085104 -25.559956 -1.5085914 17 10
5.7843409 -21.663054 1.3058025 5 27
6.5444632 -24.509804 -1.1817045 9 12
6.2020903 -28.807486 -1.5443295 25 11
24.829985 -92.99128 11.817915 63 29
10.271503 -32.088165 -1.3726497 21 13
6.8005381 -41.302372 -1.4617306 20 14
10.909433 -40.857143 -0.9840309 29 16
9.7056313 -30.688925 -0.5618279 14 17
9.0595074 -42.805283 -1.273351 17 15
1.5044023 -5.7141209 -1.6541145 10 1
1.7444941 -8.2425623 -1.6850398 59 2
8.2053108 -31.165958 0 21 20
12.924242 -80.240311 -0.94618732 63 18
2.7129908 -10.304662 -1.6577967 9 3
2.4697382 -11.669271 -1.5182492 26 4
8.8747149 -28.061592 0.17105626 21 21
9.1915646 -43.429237 -0.25800249 18 19
2.95766 -11.233981 -1.251322 25 5
2.8613634 -17.764809 -1.6796852 44 6
5.6435065 -21.435541 0.51579034 21 24
5.4291139 -20.621222 -1.4911144 28 8
4.0597401 -19.181871 -1.600602 19 7
9.2894669 -29.373024 0.89657027 12 25
6.5470052 -30.933954 0.55191487 12 23
6.8670082 -21.71328 -1.4595112 29 9
4.1287875 -25.633627 -1.5120797 17 10
6.4730611 -30.584576 1.2736496 14 26
7.750844 -29.439772 -1.4180826 24 12
6.117209 -28.90321 -1.5483071 17 11
24.404148 -92.693459 11.769168 63 29
10.164252 -32.139072 -1.3733009 21 13
6.4649787 -40.137901 -1.4197115 20 14
12.663528 -48.099457 -1.1573877 29 16
9.4672585 -30.302696 -0.55414879 14 17
1.4863831 -5.7267938 -1.656271 11 1
1.7149138 -8.2447624 -1.6842554 60 2
8.0914497 -31.175049 0 10 20
7.6380959 -48.498894 -0.57157719 14 18
2.6799841 -10.325545 -1.6596415 9 3
2.3732359 -11.409767 -1.4833992 27 4
8.7623959 -28.046581 0.17077728 14 21
9.0187378 -43.359234 -0.25739804 18 19
2.9344149 -11.305826 -1.2581762 23 5
2.792522 -17.731413 -1.6755959 48 6
5.5917568 -21.544134 0.51793057 21 24
13.633457 -86.56707 1.0202246 63 22
5.3661232 -20.674805 -1.4936256 28 8
3.9822056 -19.145184 -1.5963711 20 7
9.2464981 -29.596088 0.90238839 12 25
6.7840323 -21.714256 -1.4579762 23 9
4.0374236 -25.636045 -1.5113821 17 10
5.5587292 -21.416885 1.2885934 5 27
5.9625959 -28.666273 -1.5344903 17 11
10.077037 -32.254467 -1.3767204 21 13
6.507679 -41.321194 -1.4607534 20 14
18.363888 -88.287758 16.441668 63 30
9.0563822 -29.328911 -0.53578889 13 17
6.2905107 -30.753963 -0.91355914 28 15
1.4702499 -5.7428865 -1.659506 11 1
1.6804891 -8.2158194 -1.6771951 55 2
2.6467083 -10.338205 -1.6602564 8 3
2.3504941 -11.491437 -1.4929955 30 4
8.7177277 -28.232185 0.17173044 7 21
6.318718 -30.891867 -0.18326128 9 19
2.8683031 -11.203768 -1.245753 26 5
2.7306733 -17.720896 -1.6737369 46 6
5.622436 -21.961582 0.52751499 10 24
5.3133669 -20.754339 -1.49809 21 8
3.9170971 -19.150475 -1.5957202 21 7
8.8168163 -28.55308 0.86969066 5 25
6.2978258 -30.789726 0.54856402 24 23
6.7096314 -21.729006 -1.4574646 23 9
3.9511716 -25.641403 -1.5109169 14 10
5.5055037 -21.504837 1.2927794 10 27
6.2543197 -30.577026 1.2715328 29 26
7.7811761 -30.393753 -1.4614495 24 12
5.9283366 -28.983313 -1.5504005 17 11
9.9535103 -32.234241 -1.3744407 21 13
6.362092 -41.287239 -1.458799 20 14
18.019753 -88.097588 16.395033 63 30
8.5977755 -42.794384 -1.2703255 17 15
1.4417138 -5.7143698 -1.6498013 11 1
1.6595261 -8.2600899 -1.6850398 56 2
7.4554396 -49.530643 -0.58312517 16 18
2.6135056 -10.358878 -1.6621011 8 3
2.3377228 -11.635731 -1.5106732 30 4
8.661129 -28.400175 0.17256735 7 21
8.7281179 -43.44315 -0.25753754 18 19
2.8252847 -11.198285 -1.2440394 24 5
2.6664274 -17.714565 -1.6722498 46 6
5.5134587 -21.853117 0.52444422 10 24
5.2262459 -20.714722 -1.4939046 28 8
3.8533664 -19.179665 -1.5970219 20 7
8.735754 -28.644873 0.87155241 15 25
5.7223749 -28.482426 0.50709713 14 23
6.6500435 -21.80575 -1.4610462 30 9
3.8438103 -25.536575 -1.5039403 13 10
5.5173445 -21.868519 1.3134768 5 27
7.2527704 -28.747044 -1.3810438 10 12
5.8743391 -29.23881 -1.5629612 17 11
9.8560867 -32.318485 -1.3765576 21 13
6.2179322 -41.309193 -1.458799 20 14
17.684996 -88.024918 16.369921 63 30
10.722679 -42.500359 -1.0199491 29 16
8.6784191 -28.816994 -0.52531743 27 17
8.5056124 -43.114414 -1.2789363 17 15
1.4245465 -5.7305822 -1.6530362 14 1
1.6306835 -8.2658319 -1.6850398 54 2
7.2987871 -49.667171 -0.58442897 16 18
2.5782852 -10.371774 -1.6627162 9 3
2.3109171 -11.713893 -1.5197643 30 4
8.5787458 -43.485126 -0.25760728 18 19
2.8101652 -11.304567 -1.2547492 20 5
2.6057355 -17.731646 -1.6729933 40 6
7.3336797 -49.904606 0.58722287 20 22
5.1664224 -20.78318 -1.4975319 28 8
3.7856233 -19.189087 -1.5966965 19 7
8.5792179 -28.487595 0.86585069 15 25
5.6205974 -28.490456 0.50688767 19 23
6.569284 -21.813538 -1.4600228 29 9
3.7685838 -25.644657 -1.5095216 17 10
7.6227822 -30.66448 -1.4718726 24 12
5.7745619 -29.270891 -1.5635892 17 11
9.0494127 -30.048891 -1.2785344 61 13
6.060915 -41.243633 -1.4557278 20 14
12.22586 -49.181469 -1.1792551 29 16
8.5424385 -28.728273 -0.52315336 6 17
8.3200932 -42.963272 -1.2735837 17 15
1.4008693 -5.7205544 -1.6487229 14 1
1.5973459 -8.2483702 -1.6803331 53 2
7.7892914 -31.808153 0 21 20
7.0918746 -49.458752 -0.58168167 14 18
2.5439448 -10.388389 -1.6639459 8 3
2.2617149 -11.679036 -1.5142086 30 4
8.6028786 -28.931534 0.17542683 12 21
2.7839305 -11.368388 -1.2607465 21 5
2.5330834 -17.66573 -1.6659297 40 6
7.1384268 -49.783405 0.58549994 20 22
5.1061811 -20.851473 -1.5011593 21 8
3.7193749 -19.206097 -1.5970219 16 7
8.4557943 -28.436888 0.86340708 15 25
5.527195 -28.541311 0.50744617 9 23
6.472621 -21.767464 -1.4554179 23 9
3.6841443 -25.693232 -1.5116147 20 10
5.5082574 -28.443523 1.1803485 18 26
7.5318518 -30.75688 -1.4750366 24 12
5.6761484 -29.310478 -1.5646359 17 11
8.9433279 -30.076468 -1.2783716 20 13
6.1030183 -42.562466 -1.501516 21 14
12.213903 -49.876385 -1.194888 30 16
0.086632252 -0.45587093 -0.21638057 2 0
8.3632488 -28.489296 -0.51826668 6 17
8.2282963 -43.298439 -1.2826599 17 15
1.3908266 -5.7665992 -1.6605843 18 1
1.569276 -8.2577477 -1.6811175 47 2
7.6866522 -31.870144 0 10 20
6.8986945 -49.336643 -0.5799588 14 18
2.5085933 -10.401047 -1.6645608 8 3
2.2387125 -11.780416 -1.5263304 22 4
5.4155726 -28.497496 -0.16859201 3 19
2.719986 -11.277516 -1.2496084 24 5
2.4741607 -17.694185 -1.6677884 38 6
7.2851553 -30.205469 0.72301841 26 24
6.9662685 -49.819904 0.58563966 20 22
5.0342999 -20.873047 -1.5014383 21 8
3.6984572 -19.461796 -1.6172004 16 7
8.3407106 -28.412521 0.86177796 10 25
5.3775058 -28.297184 0.50276893 19 23
6.3909764 -21.770777 -1.4541388 23 9
3.6171083 -25.86808 -1.5211495 17 10
5.3790903 -28.305519 1.1738353 12 26
7.4047699 -30.701412 -1.471128 24 12
5.423903 -28.54133 -1.5225577 17 11
9.5655222 -32.584827 -1.3835592 21 13
5.9405713 -42.484535 -1.498026 21 14
10.038887 -41.622902 -0.99631381 29 16
0.083711669 -0.44904292 -0.21299961 5 0
8.2704296 -28.541363 -0.51868552 6 17
1.3662386 -5.7526813 -1.6551927 25 1
1.5562555 -8.3480062 -1.6983759 56 2
21.756508 -91.607903 0 63 20
2.4740982 -10.417433 -1.6657907 8 3
2.1859422 -11.725747 -1.5182492 28 4
8.3305521 -28.748848 0.17396221 7 21
2.7256324 -11.476542 -1.2705995 18 5
2.4048519 -17.647467 -1.6625836 40 6
7.1852174 -30.254059 0.72357672 26 24
5.017652 -21.127316 -1.518459 21 8
3.6151567 -19.392284 -1.6103659 14 7
8.3505363 -28.817814 0.87318146 24 25
5.3028841 -28.445528 0.50507265 14 23
6.3093877 -21.773783 -1.4528596 29 9
3.5386508 -25.967596 -1.5262656 14 10
5.2707305 -28.27305 1.1717185 18 26
7.3455667 -30.929226 -1.4808065 24 12
5.3249736 -28.564018 -1.5227671 25 11
16.21706 -86.990936 7.2238641 63 28
9.4628439 -32.656403 -1.3851874 21 13
5.7803593 -42.41787 -1.4949548 21 14
9.8362436 -41.416466 -0.99054456 29 16
0.084751487 -0.46359691 -0.21976152 2 0
8.2301378 -28.7777 -0.52245522 19 17
1.3443962 -5.7499127 -1.6530362 24 1
1.5278121 -8.3572454 -1.6991603 59 2
21.391989 -91.492432 0 63 20
5.6521525 -42.587654 -0.50014752 27 18
2.4395201 -10.433702 -1.6670206 8 3
2.1314418 -11.659143 -1.5086528 28 4
8.235652 -28.796982 0.17407845 7 21
2.6918945 -11.513093 -1.2735982 18 5
2.341666 -17.643909 -1.6614684 36 6
7.0904951 -30.32568 0.72469336 26 24
3.9777136 -29.971146 0.35197982 20 22
4.9447832 -21.148582 -1.5187379 21 8
3.5517466 -19.428316 -1.6123186 14 7
5.1920533 -28.400915 0.50395572 9 23
6.2673721 -21.914646 -1.4607903 17 9
3.4611223 -26.078751 -1.5320796 14 10
5.2007589 -28.448536 1.1782317 24 26
7.1966248 -30.779593 -1.4724308 24 12
5.3839908 -29.450827 -1.5690321 17 11
9.33671 -32.646969 -1.3833964 21 13
5.4492359 -41.058723 -1.4463747 20 14
0.081214257 -0.45318475 -0.21469009 2 0
8.1231155 -28.783157 -0.52203637 6 17
9.1638603 -51.13538 -1.5118933 32 15
1.3234529 -5.7508168 -1.6519579 24 1
1.4993223 -8.3663883 -1.6999447 57 2
20.98278 -91.176743 0 63 20
5.5096068 -42.654724 -0.50070632 13 18
2.4048574 -10.449857 -1.6682502 8 3
2.0907304 -11.666512 -1.5086528 27 4
8.3197708 -29.479979 0.17803055 12 21
2.6597168 -11.557302 -1.2774537 18 5
2.2764912 -17.624327 -1.6588659 38 6
6.9765229 -30.315172 0.72385585 26 24
3.8382275 -29.715107 0.34881341 13 22
4.8601918 -21.119053 -1.5153897 28 8
3.4909391 -19.479837 -1.615573 16 7
5.9761157 -21.175556 0.64034086 24 25
5.1091099 -28.509411 0.50556135 14 23
6.2287841 -22.070852 -1.4697444 24 9
3.3930881 -26.268888 -1.5425446 14 10
5.1084723 -28.505856 1.1798599 18 26
7.0864515 -30.792847 -1.4718726 24 12
5.2882013 -29.508762 -1.5711256 31 11
9.2172642 -32.660126 -1.3825822 21 13
5.3908887 -41.735626 -1.469548 20 14
11.74951 -51.05529 -1.2190816 31 16
0.080258854 -0.45703608 -0.21638057 5 0
8.2983103 -29.801514 -0.53997743 27 17
9.0288744 -51.41515 -1.519224 32 15
1.312729 -5.7967262 -1.6638192 30 1
1.4741791 -8.3947506 -1.7046516 58 2
20.594587 -90.941231 0 63 20
6.4788785 -51.57513 -0.6051501 16 18
2.3692386 -10.462043 -1.6688652 7 3
2.0596018 -11.728455 -1.5157238 33 4
8.3026524 -29.817108 0.17989036 12 21
2.6193576 -11.566515 -1.2774537 22 5
2.2164454 -17.64402 -1.6599811 28 6
3.7444487 -29.807693 0.34974471 41 22
4.7714596 -21.069729 -1.5106461 21 8
3.4332631 -19.550804 -1.6204549 15 7
5.9064531 -21.211697 0.64080632 24 25
6.174191 -22.173218 -1.4751168 24 9
3.3048551 -26.308308 -1.5441725 14 10
5.0061712 -28.507771 1.1792086 12 26
7.0203981 -31.000553 -1.4806204 24 12
5.2079625 -29.656874 -1.5780339 15 11
9.1021309 -32.688255 -1.3824195 21 13
5.2506509 -41.797821 -1.4710835 20 14
11.659542 -51.486004 -1.2283869 31 16
0.080670029 -0.46800363 -0.221452 11 0
8.3425369 -30.328737 -0.54905272 14 17
8.8829231 -51.53389 -1.5219004 32 15
1.2869607 -5.7669868 -1.6541145 29 1
1.4477986 -8.3993406 -1.7046516 55 2
20.232117 -90.661934 0 63 20
6.360076 -51.94857 -0.60929435 16 18
2.336359 -10.469435 -1.6688652 6 3
2.0193748 -11.715315 -1.5131984 36 4
2.5492253 -11.423307 -1.2607465 26 5
2.1822989 -17.824837 -1.6763394 28 6
26.664886 -119.48775 2.8488042 63 24
3.6522436 -29.831223 0.34988442 20 22
4.7513051 -21.291023 -1.5254346 28 8
3.3670843 -19.533991 -1.6181767 15 7
5.8419056 -21.237858 0.64103901 21 25
6.1352029 -22.304119 -1.4825358 24 9
6.958652 -31.182344 -1.4882514 24 12
5.1873684 -30.09429 -1.6004337 31 11
9.0025721 -32.728249 -1.3829079 21 13
5.3039136 -43.321922 -1.5241308 21 14
11.617929 -52.060986 -1.2412281 31 16
0.077225968 -0.4575583 -0.21638057 5 0
8.7508984 -51.848446 -1.5302786 32 15
1.270952 -5.7902555 -1.659506 30 1
1.428916 -8.4662247 -1.7172031 48 2
19.83835 -90.380371 0 63 20
3.5811479 -30.121813 -0.35314393 5 18
2.3040376 -10.496828 -1.6719397 9 3
1.9883755 -11.780982 -1.5207746 35 4
8.1015759 -29.859936 0.17982061 12 21
2.5067782 -11.420483 -1.2594614 24 5
2.1097231 -17.745338 -1.6681602 32 6
3.559427 -29.939112 0.35100198 31 22
4.6641254 -21.249014 -1.5212492 21 8
3.3068416 -19.5928 -1.6220822 16 7
5.7960057 -21.362307 0.64418077 21 25
6.0709 -22.375484 -1.4858617 24 9
6.8257799 -31.097168 -1.48304 24 12
5.1294913 -30.391869 -1.6152972 47 11
19.530457 -88.977654 11.185169 63 29
0.07799162 -0.47213212 -0.22314245 5 0
6.5644383 -24.533073 -0.44329113 21 17
1.2458557 -5.7720661 -1.6530362 33 1
1.3884857 -8.4053726 -1.7038672 44 2
19.44762 -90.101082 0 63 20
6.2772913 -54.419445 -0.63774514 17 18
2.2707169 -10.520262 -1.6743994 8 3
1.932364 -11.697809 -1.5091579 31 4
7.9983263 -29.891899 0.17984387 12 21
2.514724 -11.65075 -1.2838795 21 5
2.0422883 -17.705118 -1.663699 16 6
3.4727683 -30.106316 0.35281795 10 22
4.6000237 -21.311972 -1.5245975 28 8
3.2319293 -19.564892 -1.6188277 18 7
5.7658396 -21.548494 0.64918441 21 25
5.9948187 -22.404253 -1.4863734 24 9
0.95040607 -8.2393131 -0.48301902 38 10
6.7348876 -31.202826 -1.4869486 49 12
5.0292268 -30.445059 -1.6171812 31 11
5.0567684 -43.838417 -1.5410222 21 14
9.2309856 -42.767281 -1.0180881 29 16
0.07576479 -0.46882275 -0.221452 5 0
7.2858253 -45.083744 -1.3290883 17 15
1.2320966 -5.8065238 -1.6616627 39 1
1.3697757 -8.4759941 -1.7172031 47 2
19.062424 -89.835831 0 63 20
2.2356219 -10.535856 -1.6756293 9 3
1.9016488 -11.767157 -1.5172391 38 4
7.932713 -30.066603 0.18072727 12 21
2.523571 -11.892879 -1.3095828 29 5
0.91787809 -8.2089329 -0.77106404 8 6
6.6188698 -31.192867 0.74200112 26 24
3.3565476 -30.018883 0.35165387 41 22
4.52809 -21.339611 -1.5254346 28 8
3.1693411 -19.611473 -1.6217568 18 7
5.6793671 -21.525961 0.6479044 14 25
5.9349084 -22.494514 -1.4909782 18 9
0.92385906 -8.2624235 -0.48418179 48 10
6.5721626 -30.972752 1.8439373 18 27
6.6292486 -31.241779 -1.4876932 24 12
4.9382205 -30.55707 -1.6222055 32 11
13.841301 -85.648178 7.0826154 63 28
8.9835844 -34.049618 -1.4346876 22 13
18.908516 -89.110504 24.408709 63 31
9.0600662 -42.697536 -1.0156687 29 16
0.074127883 -0.46908435 -0.221452 5 0
8.0803614 -31.065424 -0.56029207 14 17
7.7007093 -48.730412 -1.4357924 19 15
1.2094619 -5.7994766 -1.6584277 36 1
1.3346713 -8.4458561 -1.7101429 54 2
8.954215 -42.936253 0 18 20
5.8093934 -53.650734 -0.62824601 17 18
2.2004464 -10.551334 -1.6768591 8 3
1.8791442 -11.891303 -1.5323912 27 4
2.4641807 -11.815965 -1.3001583 11 5
1.9375023 -17.893162 -1.680057 16 6
6.503418 -31.184464 0.74125671 26 24
4.4739404 -21.45294 -1.5324101 28 8
3.1164243 -19.720863 -1.6298933 24 7
5.560915 -21.379265 0.64290076 21 25
5.6825118 -21.84675 -1.4467196 47 9
0.89501303 -8.2655973 -0.48418179 49 10
6.2444391 -29.942636 -1.424783 24 12
4.6737833 -29.575895 -1.5692414 17 11
8.8905621 -42.631031 -1.0133424 29 16
0.071936592 -0.46575749 -0.21976152 5 0
7.5329952 -48.7728 -1.4362578 19 15
1.1923027 -5.8187571 -1.6627408 33 1
1.3087726 -8.4737215 -1.7148497 50 2
6.3199711 -30.843157 0 10 20
5.6499929 -53.93721 -0.63136584 17 18
2.1651874 -10.566695 -1.6780888 8 3
1.8521589 -11.991906 -1.544513 34 4
13.370502 -86.568062 -0.50910044 63 19
3.0120833 -14.699775 -1.6163088 10 5
4.4030309 -21.487974 -1.5338054 28 8
3.0469551 -19.727682 -1.6295679 22 7
5.494195 -21.429529 0.64383173 28 25
5.8025064 -22.632067 -1.4973741 24 9
0.8557536 -8.169384 -0.47836792 38 10
6.2972569 -30.732306 1.8269607 18 27
6.2978864 -30.735376 -1.4614495 24 12
4.7357469 -30.66186 -1.6259736 32 11
18.047132 -88.074852 11.038926 63 29
0.85126734 -8.1265564 -0.28533828 24 14
0.070310391 -0.46600574 -0.21976152 8 0
7.54106 -49.980907 -1.4710501 31 15
1.1712246 -5.8191075 -1.6616627 42 1
1.2791864 -8.4782381 -1.7148497 49 2
8.664506 -43.048698 0 18 20
5.4822307 -54.159554 -0.6337406 17 18
2.12907 -10.578063 -1.6787037 8 3
1.8233126 -12.084617 -1.5556246 25 4
7.7056155 -30.497051 0.18281958 13 21
7.542335 -49.989361 -0.29382715 23 19
0.81983328 -8.0992222 -0.75991076 26 6
5.7079682 -28.359447 0.67314225 13 24
0.86201131 -8.5159035 0.099647678 52 22
4.3193378 -21.460182 -1.530736 28 8
2.990566 -19.820982 -1.6364025 22 7
5.4183803 -21.4447 0.64371532 17 25
5.7097826 -22.598003 -1.4937924 24 9
0.83648223 -8.2636995 -0.4837167 34 10
6.1797023 -30.703209 1.8239375 18 27
12.859677 -85.231834 3.5117362 63 26
6.304883 -31.325155 -1.4884375 24 12
4.6328621 -30.705851 -1.627439 32 11
17.700422 -87.942703 11.014552 63 29
12.875256 -85.335083 7.0451875 63 28
8.7019196 -34.440193 -1.4472255 22 13
0.81605184 -8.0618649 -0.28296512 24 14
17.726568 -88.072609 24.072243 63 31
8.5690536 -42.574451 -1.0105509 29 16
0.068683282 -0.46624836 -0.21976152 5 0
10.543017 -42.348701 -0.76176268 33 17
7.3339152 -49.785416 -1.4645338 31 15
1.1464237 -5.8004875 -1.6551927 45 1
1.2427241 -8.4360857 -1.705436 52 2
3.0786572 -31.511822 -0.36860329 5 18
2.0951979 -10.600941 -1.6811634 8 3
1.7759134 -12.055578 -1.5510789 19 4
7.8213668 -31.4165 0.18816654 13 21
7.3304844 -49.762127 -0.2923393 23 19
2.2917309 -11.595325 -1.2731698 27 5
1.7701586 -18.118589 -1.6993895 16 6
5.6159182 -28.414507 0.6739797 13 24
0.82489026 -8.4432249 0.098762952 45 22
4.2560062 -21.533846 -1.5349215 28 8
2.9231019 -19.843132 -1.6373787 28 7
5.4565043 -21.917431 0.65732968 10 25
7.377286 -50.079838 0.88358045 28 23
5.6540098 -22.710762 -1.4999324 24 9
0.82238591 -8.4175911 -0.4925538 35 10
12.547521 -85.177361 3.5076654 63 26
6.207119 -31.405767 -1.4912294 24 12
4.547771 -30.872007 -1.6353941 32 11
12.551153 -85.202019 7.0305419 63 28
8.563303 -34.396675 -1.4441316 22 13
0.78907156 -8.0766001 -0.28338394 22 14
17.400299 -88.039192 24.04636 63 31
12.569324 -85.325371 15.72491 63 30
8.5165319 -43.090557 -1.0220894 29 16
0.067055345 -0.46648526 -0.21976152 5 0
15.548871 -63.399193 -1.1394327 63 17
1.1320382 -5.8347054 -1.6638192 48 1
1.2216402 -8.4986095 -1.7172031 53 2
2.0574276 -10.604309 -1.6805484 7 3
1.7309976 -12.042066 -1.5485536 25 4
7.1738095 -49.906185 -0.2930367 23 19
2.2459388 -11.575926 -1.270171 30 5
1.7173573 -18.235682 -1.7097993 14 6
5.4786143 -28.23765 0.66932708 13 24
0.79278743 -8.4181786 0.098437004 32 22
4.1868925 -21.579908 -1.5371537 28 8
2.8464441 -19.801914 -1.6331478 24 7
5.5861096 -22.776884 -1.5030024 24 9
0.79337215 -8.424387 -0.49278641 34 10
5.575027 -28.734575 1.7046362 7 27
12.217134 -84.991188 3.4982212 63 26
6.0700564 -31.286036 -1.484529 24 12
4.4485044 -30.947001 -1.6385342 16 11
12.222466 -85.028275 7.0126419 63 28
0.76012415 -8.0713444 -0.28310472 26 14
12.159423 -84.589706 15.581414 63 30
8.365303 -43.116104 -1.0219964 29 16
0.065929934 -0.47030661 -0.221452 2 0
10.007655 -41.429935 -0.74396122 32 17
6.3361831 -45.198723 -1.3282739 17 15
1.1159877 -5.8613243 -1.6702889 51 1
1.199047 -8.553318 -1.7274013 55 2
0.75148177 -8.2894421 -0.096900381 7 18
2.0204003 -10.611425 -1.6805484 8 3
1.7027253 -12.146273 -1.5611804 30 4
6.9629164 -49.669479 -0.29150236 23 19
2.2099817 -11.607135 -1.2727414 19 5
0.74288595 -8.194623 -0.76808977 13 6
5.3904872 -28.311598 0.6706298 13 24
0.75689858 -8.3491936 0.097598851 12 22
4.0958681 -21.512075 -1.5312941 28 8
2.7994459 -19.969654 -1.6461661 24 7
5.4672055 -22.633272 -1.4922575 30 9
0.73547989 -8.1129284 -0.47441447 24 10
11.888769 -84.807709 3.48894 63 26
6.0206008 -31.621042 -1.499419 25 12
4.4142108 -31.488468 -1.6663771 32 11
11.901243 -84.89669 6.9983215 63 28
8.3239031 -34.459499 -1.4442946 22 13
0.72689331 -8.0182114 -0.28115037 25 14
8.5775089 -45.050285 -1.0671268 29 16
0.063797027 -0.46694201 -0.21976152 2 0
6.2097564 -45.450333 -1.3350228 17 15
1.0969348 -5.8727579 -1.6724457 54 1
1.1718364 -8.5768824 -1.7313235 59 2
5.3540154 -28.664267 0 4 20
1.9840715 -10.6223 -1.6811634 8 3
1.6452745 -12.042063 -1.5470383 26 4
6.8441753 -50.093761 -0.29385036 23 19
2.217644 -11.872798 -1.301015 31 5
5.2776742 -28.255554 0.66886181 13 24
0.70587444 -8.1007528 0.094665289 35 22
4.0390654 -21.624304 -1.5382699 28 8
2.7577822 -20.184708 -1.6630899 26 7
7.2566681 -30.507545 0.91262823 25 25
4.1649613 -30.484108 0.53704548 12 23
5.4288082 -22.823093 -1.5035139 24 9
0.70715487 -8.115447 -0.47441447 29 10
5.2782383 -28.258574 1.6741713 7 27
8.5953426 -62.91087 2.5868666 63 26
4.3161597 -31.590757 -1.6709826 32 11
11.584304 -84.787621 6.9859538 63 28
8.1933861 -34.445576 -1.4425033 22 13
0.69889897 -8.0207005 -0.28115037 24 14
0.06216675 -0.46716186 -0.21976152 2 0
9.6525173 -41.218426 -0.73893487 32 17
6.6607671 -50.053387 -1.4695375 31 15
1.0729588 -5.8576064 -1.6670542 45 1
