# .PCD v0.7 - Point Cloud Data file format
VERSION 0.7
FIELDS x y z intensity ring
SIZE 4 4 4 4 2
TYPE F F F F U
COUNT 1 1 1 1 1
WIDTH 1329
HEIGHT 1
VIEWPOINT 0 0 0 1 0 0 0
POINTS 1329
DATA ascii
31.760651 62.360691 0.40674099 63 21
23.358643 36.53894 -0.25205112 18 19
7.6979523 13.446823 -1.6690005 14 5
10.646934 14.987229 -1.7161194 18 6
34.57225 48.665863 0.69497275 25 22
11.186962 19.541443 -1.5745431 29 8
10.741054 16.801777 -1.6279405 24 7
10.771912 21.150192 -1.5211662 18 9
14.259721 20.072794 -1.4339409 15 10
14.183809 24.77635 -1.3298596 10 12
15.019917 23.495024 -1.4614294 25 11
13.790589 27.077238 -1.2379899 19 13
18.745724 26.387547 -1.1303248 11 14
18.985407 33.163803 -0.88921034 15 16
2.0634127 3.2030182 -1.7766873 15 0
19.830116 38.601814 -0.75750428 32 17
19.072218 29.605642 -1.0249177 10 15
3.0343931 5.257843 -1.6994032 24 1
4.1846313 6.4957681 -1.5454044 39 2
27.815586 48.197445 0 29 20
26.494635 37.020973 -0.52999526 13 18
5.4626141 9.4653425 -1.7002256 12 3
7.495389 11.635029 -1.7616943 15 4
31.901365 62.100025 0.40576458 63 21
23.46871 36.430283 -0.25186512 18 19
7.669302 13.28898 -1.6527219 11 5
10.040914 14.030176 -1.6105349 14 6
34.576637 48.313961 0.69166666 25 22
11.203246 19.41242 -1.5672884 21 8
10.784523 16.740725 -1.6256623 13 7
10.962409 21.33971 -1.5375394 18 9
14.338994 20.035887 -1.4348711 15 10
14.300164 24.778603 -1.3326514 10 12
14.569671 22.616377 -1.4099307 24 11
13.161821 25.621143 -1.1735096 10 13
2.072608 3.192755 -1.7749969 17 0
19.628048 37.882511 -0.7447291 32 17
19.767612 30.451077 -1.0565683 10 15
3.0527291 5.2472181 -1.6994032 25 1
4.1880612 6.4515104 -1.5383441 36 2
27.939417 48.023983 0 29 20
26.57225 36.85688 -0.52897084 13 18
5.4956236 9.4462147 -1.7002256 12 3
7.527319 11.59548 -1.7596741 18 4
31.910025 61.58696 0.40313762 63 21
27.413664 42.229458 -0.29261824 23 19
7.6256499 13.107435 -1.6334443 7 5
34.89011 48.394119 0.69455361 25 22
11.317096 19.452518 -1.573706 29 8
10.897167 16.786572 -1.6337988 17 7
11.057039 21.340298 -1.5403535 25 9
14.602681 20.25456 -1.4541733 16 10
14.448865 24.835596 -1.3384212 10 12
14.811659 22.816662 -1.4256316 16 11
13.486532 26.029266 -1.1943518 10 13
20.030613 27.783342 -1.1960757 24 14
17.26989 29.684547 -0.79913539 14 16
2.0837379 3.1855023 -1.7749969 15 0
20.202833 38.660938 -0.76141357 33 17
19.427259 29.69931 -1.0328304 10 15
3.0710232 5.2365322 -1.6994032 24 1
4.2084036 6.4335728 -1.5375596 39 2
27.862003 47.508682 0 29 20
25.936834 35.712135 -0.51383746 13 18
5.5325561 9.4337959 -1.7014555 12 3
7.5460186 11.535933 -1.7546233 22 4
26.515295 50.740715 0.3327437 31 21
28.029457 42.849869 -0.29759327 23 19
7.786026 13.276283 -1.6578624 10 5
10.447544 14.385106 -1.6596094 28 6
56.120869 77.272186 1.1118166 63 22
11.059921 18.858742 -1.5287828 7 8
10.517019 16.077833 -1.5683817 11 7
10.787578 20.643534 -1.4927691 24 9
14.649816 20.171165 -1.4518478 19 10
14.323212 24.423117 -1.3188782 20 12
15.044263 22.998829 -1.4402856 24 11
14.202938 27.179302 -1.249388 20 13
19.815018 27.283075 -1.1775091 12 14
17.353153 29.5896 -0.79820484 14 16
2.0968404 3.1812353 -1.7766873 11 0
20.253765 38.430962 -0.75827217 32 17
19.799269 30.038591 -1.0470265 10 15
3.0873246 5.2224641 -1.6983248 23 1
4.2308369 6.4188423 -1.5375596 39 2
27.559502 46.619167 0 28 20
26.857235 36.709221 -0.52952963 13 18
5.555398 9.3974133 -1.6983808 12 3
7.5753245 11.492954 -1.752098 25 4
26.634455 50.538143 0.33202302 31 21
28.110628 42.648228 -0.29687259 23 19
7.854588 13.286682 -1.6625748 11 5
9.8768663 13.499977 -1.5614605 18 6
56.380829 77.062889 1.1116303 63 22
10.355872 15.711481 -1.5361614 12 7
11.177827 21.20962 -1.5365161 12 9
14.724857 20.126347 -1.4523128 13 10
14.469384 24.476154 -1.3244619 10 12
14.588067 22.132383 -1.3892057 16 11
14.260466 27.058842 -1.2461314 20 13
19.190212 26.229719 -1.1349316 11 14
17.452274 29.521959 -0.79801875 14 16
2.1059275 3.1708763 -1.7749969 18 0
20.45537 38.487164 -0.76078534 33 17
19.31118 29.076674 -1.0158415 10 15
3.103565 5.2083459 -1.6972466 22 1
4.2510486 6.4007664 -1.5367752 37 2
28.080399 47.124012 0 29 20
26.54385 36.016365 -0.52086866 13 18
5.5800762 9.3643818 -1.6959212 12 3
7.5934463 11.433385 -1.7470472 22 4
26.75815 50.345966 0.33137208 31 21
28.252697 42.539837 -0.29680282 23 19
7.9049926 13.266014 -1.6634315 11 5
9.5789576 12.997333 -1.5071812 14 6
35.905148 48.718361 0.70456493 41 22
11.187233 18.77421 -1.5282248 14 8
10.554023 15.8911 -1.5573162 6 7
10.822783 20.363272 -1.477931 12 9
14.59839 19.808014 -1.4330107 15 10
14.276571 23.958681 -1.299149 10 12
14.879606 22.404091 -1.4095122 24 11
14.330452 26.963017 -1.2440146 20 13
19.530685 26.500463 -1.1495894 35 14
17.569553 29.484901 -0.79867011 14 16
2.1149662 3.1604934 -1.7733063 16 0
19.852755 37.040779 -0.73355955 32 17
3.1237085 5.2007828 -1.6983248 23 1
4.2733641 6.3858895 -1.5367752 37 2
28.248829 47.032566 0 29 20
26.717085 35.987724 -0.52179992 13 18
5.5984826 9.3211298 -1.6916169 13 3
7.5803447 11.327665 -1.7349255 23 4
27.058428 50.484943 0.33290645 31 21
26.045197 38.920563 -0.27218357 18 19
7.9512486 13.23834 -1.6634315 14 5
10.075329 13.571397 -1.5778188 26 6
35.850864 48.290859 0.70018792 41 22
11.548548 19.227623 -1.5684046 21 8
11.046219 16.506886 -1.6214314 10 7
10.727851 20.015759 -1.4554179 11 9
14.684101 19.779381 -1.4346385 18 10
14.681051 24.44305 -1.3281844 10 12
14.962158 22.358658 -1.4099307 24 11
14.307422 26.694431 -1.2339193 19 13
19.673105 26.499533 -1.152521 11 14
17.682653 29.440535 -0.79913539 14 16
2.1259863 3.1530912 -1.7733063 17 0
20.092236 37.175316 -0.73760855 32 17
21.01132 31.162292 -1.0938041 10 15
3.1398504 5.1865516 -1.6972466 23 1
4.2846675 6.3546724 -1.5328529 37 2
28.690428 47.392189 0 29 20
5.626894 9.2947664 -1.690387 13 3
7.6664262 11.370224 -1.7455319 21 4
27.2307 50.383137 0.33285996 31 21
27.276623 40.454483 -0.28357491 19 19
7.9974146 13.210504 -1.6634315 13 5
10.179889 13.61269 -1.5867412 26 6
57.148815 76.420189 1.110932 63 22
11.289099 18.647861 -1.5243185 21 8
10.854154 16.098003 -1.5849801 6 7
11.012132 20.375008 -1.4843266 18 9
14.951555 19.993427 -1.4539407 16 10
14.555226 24.043003 -1.3091997 10 12
14.975359 22.210243 -1.4038599 24 11
14.527843 26.879894 -1.2448288 20 13
19.75831 26.421087 -1.1521022 11 14
20.653589 34.116566 -0.92801321 16 16
2.1369791 3.1456511 -1.7733063 15 0
20.386461 37.406963 -0.74361211 32 17
20.764967 30.566206 -1.0754189 10 15
3.1559286 5.1722722 -1.6961682 21 1
4.3046174 6.3364329 -1.5320684 37 2
28.884844 47.339561 0 29 20
27.557274 36.583035 -0.53320819 13 18
5.6531267 9.2649469 -1.6885422 17 3
7.7127566 11.353243 -1.7470472 32 4
29.617203 54.344379 0.35971099 63 21
28.399914 41.804913 -0.29373413 23 19
8.0579777 13.206273 -1.6664301 12 5
9.7049513 12.883588 -1.505694 14 6
36.430183 48.362064 0.70489091 41 22
11.275142 18.478905 -1.5137155 28 8
11.111836 20.389025 -1.4881642 18 9
15.15099 20.113354 -1.4664987 13 10
14.626573 23.971588 -1.3080829 10 12
14.96076 22.022366 -1.3952768 24 11
14.001905 25.69199 -1.1920722 10 13
20.589252 33.743862 -0.91982454 16 16
2.1438503 3.1321898 -1.7699254 15 0
20.441786 37.198883 -0.74088961 32 17
20.058527 29.305735 -1.0335284 10 15
3.1739626 5.1612253 -1.6961682 21 1
4.3156304 6.3051853 -1.528146 36 2
29.188192 47.463333 0 29 20
27.646112 36.435646 -0.53246319 13 18
5.6854305 9.2451582 -1.6885422 16 3
7.7030301 11.254214 -1.7359357 17 4
27.687702 50.384621 0.33413857 31 21
28.439468 41.550385 -0.29264149 23 19
8.0811071 13.140801 -1.6617179 11 5
36.613274 48.253735 0.70517033 41 22
11.398098 18.534607 -1.5215281 28 8
10.927984 15.965909 -1.5794473 18 7
11.167555 20.322128 -1.4861176 12 9
15.177653 20.003086 -1.4623127 13 10
14.823179 24.104179 -1.3181337 10 12
15.030766 21.960119 -1.3946487 24 11
14.713208 26.774321 -1.244666 20 13
19.516991 25.722029 -1.127533 11 14
20.660822 33.596855 -0.91777748 16 16
2.1588879 3.1306558 -1.7733063 18 0
20.461037 36.927891 -0.7369104 32 17
3.1919611 5.1501136 -1.6961682 21 1
4.3331628 6.2836242 -1.5265771 36 2
29.305244 47.282951 0 29 20
27.775572 36.342091 -0.53250974 13 18
5.4136724 8.7347651 -1.5987655 7 3
7.6026096 11.024729 -1.7046211 20 4
27.840164 50.24567 0.33385959 31 21
28.729679 41.661602 -0.29412934 23 19
8.1059818 13.078708 -1.6574341 12 5
9.8406096 12.875643 -1.5127578 28 6
36.759644 48.097023 0.70475125 41 22
11.473244 18.511663 -1.5229234 28 8
11.024395 15.986742 -1.5853056 16 7
11.253909 20.310951 -1.4881642 18 9
14.432647 18.883951 -1.3841739 10 10
15.035639 24.259459 -1.3294872 10 12
15.009828 21.766115 -1.3856469 32 11
14.81821 26.743767 -1.2456429 20 13
20.777983 33.524525 -0.91777748 16 16
2.1656651 3.117147 -1.7699254 15 0
20.558598 36.800392 -0.73579347 32 17
22.039776 31.722919 -1.1241746 10 15
3.2078764 5.135674 -1.6950898 18 1
4.3483548 6.2587976 -1.5242237 35 2
29.52096 47.261799 0 29 20
27.833935 36.156181 -0.53120595 13 18
5.7519298 9.2085943 -1.6891572 12 3
7.7474523 11.151284 -1.7283596 15 4
33.407368 59.800003 0.39811611 63 21
28.772219 41.41325 -0.29308319 23 19
8.2000399 13.127915 -1.667287 11 5
9.8976383 12.856997 -1.5146167 18 6
36.966335 48.019135 0.70549625 41 22
11.605432 18.579802 -1.5318521 21 8
11.134721 16.026745 -1.5931165 19 7
11.285797 20.201853 -1.4830476 18 9
14.496036 18.830297 -1.3839413 13 10
15.355186 24.582998 -1.3501471 21 12
15.056081 21.670946 -1.3829255 24 11
14.94655 26.75469 -1.2485738 20 13
19.781435 25.696012 -1.1324189 11 14
21.12155 33.814701 -0.92773402 16 16
2.1754482 3.1103268 -1.7699254 15 0
20.954611 37.234016 -0.74577624 32 17
21.380812 30.569019 -1.0856588 10 15
3.2239966 5.1255693 -1.6950898 21 1
4.3567572 6.2290335 -1.5203013 30 2
28.953716 46.031155 0 28 20
27.873901 35.973698 -0.529809 13 18
5.7492676 9.1402922 -1.6799335 11 3
7.809741 11.165905 -1.7344204 13 4
28.002121 49.756657 0.33183706 31 21
29.136032 41.656971 -0.29545447 23 19
7.6060014 12.092162 -1.5387706 6 5
9.8355312 12.693609 -1.499002 24 6
37.068027 47.83952 0.70456493 41 22
11.678623 18.566891 -1.5338054 21 8
11.335829 16.207296 -1.6145968 12 7
11.668331 20.733328 -1.524748 18 9
14.562466 18.79413 -1.384639 10 10
15.449368 24.561689 -1.3516362 21 12
15.293511 21.865757 -1.3984169 24 11
15.050139 26.742426 -1.2502022 20 13
19.88656 25.665337 -1.1338149 23 14
21.295822 33.856495 -0.93071175 29 16
2.1883795 3.1056786 -1.771616 17 0
20.999578 37.011074 -0.74277443 32 17
22.047018 31.288427 -1.1139348 21 15
3.2398052 5.111032 -1.6940117 19 1
4.3649168 6.194551 -1.5155945 30 2
28.739437 45.338589 0 27 20
27.920551 35.775288 -0.52831894 13 18
5.4510274 8.5993986 -1.5840077 12 3
7.8280964 11.109385 -1.7298747 18 4
28.25655 49.80125 0.3327902 31 21
29.235174 41.489632 -0.2949895 23 19
8.2741518 13.053086 -1.6647166 10 5
9.9802418 12.78793 -1.5142449 30 6
37.340599 47.845428 0.70656723 41 22
11.835219 18.670933 -1.5458035 14 8
11.378551 16.148079 -1.6126441 28 7
11.417563 20.123083 -1.4827918 18 9
14.893313 19.083168 -1.4097551 10 10
15.603457 24.615606 -1.3575921 21 12
15.298411 21.71102 -1.3919272 24 11
15.082248 26.581972 -1.2451544 20 13
20.022751 25.655643 -1.1364672 35 14
21.084158 33.261818 -0.91638166 16 16
2.195549 3.0917253 -1.7682348 14 0
21.003981 36.704762 -0.73816699 32 17
21.316565 30.017534 -1.0714625 10 15
3.2585151 5.0991244 -1.6940117 21 1
4.3716936 6.156126 -1.5101032 30 2
29.79497 46.624996 0 29 20
26.956221 34.279892 -0.50769097 13 18
5.4761219 8.5693712 -1.582163 13 3
7.8067293 10.993271 -1.7162378 20 4
28.532253 49.860527 0.33388284 31 21
29.333771 41.307194 -0.29445481 23 19
8.3412094 13.052836 -1.6685722 13 5
10.640037 13.530804 -1.6068171 24 6
37.903862 48.201874 0.7138778 41 22
11.448052 17.914614 -1.4866499 14 8
11.391492 16.041258 -1.6061349 13 7
11.558646 20.198902 -1.49149 12 9
15.762419 24.665998 -1.363548 10 12
15.650792 22.039114 -1.4166298 24 11
15.231179 26.616709 -1.249388 20 13
20.168537 25.648081 -1.1393988 11 14
20.202471 31.614063 -0.8730191 15 16
2.2078991 3.0873761 -1.7699254 15 0
21.019707 36.451279 -0.73446709 32 17
21.448559 29.992208 -1.0730916 10 15
3.2774928 5.0915284 -1.6950898 20 1
4.3875227 6.1352134 -1.5085343 34 2
29.795715 46.287132 0 29 20
27.938728 35.287857 -0.52398843 13 18
5.5045114 8.5511637 -1.582163 15 3
7.8823824 11.022189 -1.7248241 21 4
28.709442 49.786419 0.33402234 31 21
29.493868 41.242222 -0.2946873 23 19
8.3715363 13.005037 -1.6660018 10 5
10.163218 12.836596 -1.5283723 36 6
59.23418 74.815407 1.110932 63 22
11.721221 18.208715 -1.5142735 21 8
11.358822 15.883405 -1.5940928 20 7
14.919589 18.844105 -1.3997551 15 10
15.718697 24.418724 -1.3527528 10 12
15.758651 22.035828 -1.41977 16 11
15.331347 26.586823 -1.2503649 60 13
20.389961 25.753428 -1.1470766 23 14
19.893787 30.904655 -0.85524607 15 16
2.2170813 3.0763214 -1.7682348 15 0
21.104925 36.291016 -0.73279166 32 17
22.561226 31.304934 -1.123011 10 15
3.2940371 5.0762496 -1.6940117 18 1
4.4053946 6.1127262 -1.5069654 37 2
29.575426 45.576977 0 28 20
27.786036 34.83189 -0.51872671 13 18
5.5358186 8.5309296 -1.582163 14 3
7.9064913 10.970689 -1.7212886 15 4
28.919895 49.729263 0.33434781 31 21
29.382912 40.770397 -0.29208353 23 19
8.4256439 12.984273 -1.667287 22 5
10.145627 12.718309 -1.5187061 36 6
38.109772 47.773472 0.71145648 41 22
11.731412 18.0786 -1.5070188 21 8
11.382002 15.793149 -1.5892111 23 7
11.671295 20.069401 -1.4879084 18 9
14.951209 18.742468 -1.3962668 18 10
15.368742 23.683878 -1.3151557 10 12
15.995794 22.19504 -1.433796 16 11
15.44678 26.561543 -1.2518303 40 13
20.481731 25.675394 -1.1469371 11 14
21.154106 32.599369 -0.90428478 16 16
2.2294009 3.0718856 -1.7699254 16 0
21.366703 36.462364 -0.73767829 32 17
20.849567 28.728567 -1.0330631 10 15
3.3087456 5.0620728 -1.6929333 18 1
4.4164276 6.0853844 -1.5038275 36 2
29.794254 45.582436 0 28 20
5.5467792 8.4860563 -1.5772436 9 3
7.877573 10.854487 -1.7071464 30 4
29.066456 49.602016 0.33413857 31 21
29.806938 41.070908 -0.294943 23 19
8.4773617 12.969574 -1.6690005 15 5
10.23763 12.746695 -1.5261416 16 6
38.318092 47.70919 0.71238774 41 22
11.387415 17.421684 -1.455399 20 8
11.563107 15.932775 -1.6071112 13 7
11.820534 20.171787 -1.4983974 18 9
14.978277 18.649193 -1.3930111 13 10
15.243891 23.321733 -1.2978462 10 12
16.315668 22.481318 -1.4557772 24 11
15.33676 26.172239 -1.2358731 19 13
20.789513 31.806019 -0.88418549 15 16
2.2422476 3.0670133 -1.771616 15 0
21.005651 35.561131 -0.72092402 32 17
3.328511 5.0537119 -1.6940117 17 1
4.4422679 6.0762672 -1.5053965 39 2
30.494398 46.299953 0 29 20
27.823746 34.396301 -0.51504815 27 18
5.5807095 8.4732475 -1.5784734 12 3
7.9341412 10.852556 -1.7111871 21 4
29.282104 49.572601 0.33462676 31 21
29.952454 40.969864 -0.29496628 23 19
8.5247612 12.943231 -1.6694288 12 5
10.377232 12.828553 -1.5402691 12 6
32.935204 40.715195 0.60966682 21 22
11.64568 17.681753 -1.4805114 20 8
11.658641 15.947038 -1.6126441 18 7
11.921313 20.181967 -1.5022348 18 9
14.77706 18.267714 -1.3683602 12 10
15.329584 23.275063 -1.2982184 10 12
16.038044 21.937317 -1.4241662 16 11
15.649567 26.493645 -1.2536216 20 13
20.779202 25.687687 -1.1537774 23 14
22.068363 33.506618 -0.93359643 29 16
2.2556231 3.0616932 -1.7733063 14 0
17.584888 29.522385 -0.59980428 15 17
3.3470104 5.0414791 -1.6940117 17 1
4.4668341 6.0631032 -1.5061809 38 2
30.511225 45.957939 0 29 20
27.921824 34.259991 -0.5145359 27 18
5.6445184 8.5021305 -1.587697 13 3
7.9503269 10.791458 -1.7061363 23 4
29.488155 49.50618 0.33490574 31 21
29.041891 39.420311 -0.28457457 19 19
8.5853386 12.931781 -1.6719992 14 5
10.509727 12.895401 -1.5529095 30 6
59.575825 73.099342 1.0978473 63 22
11.615505 17.49601 -1.4685134 27 8
11.102188 15.06967 -1.5280249 6 7
11.956387 20.072977 -1.4973741 24 9
14.803549 18.163906 -1.3646393 17 10
15.381635 23.168793 -1.2954265 20 12
16.078058 21.823717 -1.4206073 16 11
15.722017 26.394905 -1.2516676 20 13
20.928768 25.679533 -1.1568485 11 14
22.27949 33.558777 -0.9373185 29 16
2.264137 3.0508895 -1.771616 16 0
21.90188 36.479713 -0.74270463 32 17
21.511637 28.986595 -1.0505174 10 15
3.3645897 5.0297642 -1.6940117 17 1
4.4903097 6.0506225 -1.5069654 37 2
28.785507 43.031792 0 25 20
28.147837 34.292156 -0.51649165 13 18
5.7642651 8.6170673 -1.6129084 13 3
8.0328789 10.824179 -1.7157327 14 4
29.697857 49.464672 0.3353242 31 21
29.179325 39.318687 -0.28457457 19 19
8.0754118 12.072027 -1.5644739 13 5
10.569839 12.877104 -1.5551403 28 6
59.465218 72.445732 1.0911421 63 22
11.7586 17.578068 -1.4788373 27 8
11.157104 15.034024 -1.5283504 9 7
12.092138 20.140635 -1.5055606 18 9
14.714853 17.926922 -1.3506858 17 10
15.540179 23.231194 -1.3019409 10 12
16.244604 21.889351 -1.4285624 24 11
15.832579 26.370701 -1.2531331 20 13
21.066477 25.665026 -1.159501 35 14
22.280888 33.307961 -0.9324798 29 16
2.2677324 3.0346518 -1.7665445 15 0
22.07863 36.499268 -0.74458945 32 17
3.3834038 5.0217724 -1.6950898 21 1
4.5080032 6.0325551 -1.5061809 39 2
26.194611 38.879005 0 19 20
28.22319 34.15237 -0.51579314 13 18
5.7972283 8.6044598 -1.6141382 13 3
7.5604277 10.117272 -1.6076471 14 4
29.51807 48.797775 0.3314651 31 21
29.845903 39.939426 -0.28978202 19 19
8.6976147 12.909319 -1.6767116 15 5
10.92962 13.225736 -1.6016122 16 6
39.326977 47.588863 0.7187205 41 22
11.814601 17.535666 -1.4785582 27 8
11.431231 15.297134 -1.5589435 9 7
12.218782 20.199471 -1.5129797 18 9
14.746244 17.844164 -1.3481277 17 10
15.708673 23.315392 -1.309572 10 12
16.202333 21.681767 -1.4185139 16 11
15.866164 26.229137 -1.2488996 20 13
21.202406 25.656649 -1.1622928 35 14
22.426977 33.286945 -0.9339686 29 16
2.2826726 3.0325098 -1.7699254 16 0
21.015045 34.468723 -0.70465839 31 17
22.314409 29.644489 -1.0798407 20 15
3.3944237 5.00037 -1.6918551 17 1
4.517241 6.0011134 -1.5022585 37 2
30.201071 44.489594 0 27 20
28.47529 34.213501 -0.51821452 13 18
5.8427696 8.6070604 -1.6184427 13 3
7.588542 10.081308 -1.6061318 22 4
30.023476 49.244289 0.33520797 31 21
29.504038 39.195847 -0.2851325 19 19
8.7582626 12.901911 -1.6797103 12 5
11.011391 13.230355 -1.6068171 16 6
59.939095 72.017738 1.0908161 63 22
11.927291 17.570248 -1.4849757 21 8
11.388657 15.129726 -1.545925 7 7
12.341172 20.241901 -1.5193754 18 9
14.87231 17.869308 -1.3539417 15 10
15.664297 23.075281 -1.299149 10 12
16.005484 26.252077 -1.2526445 20 13
21.337873 25.637783 -1.1648057 23 14
22.450956 33.072796 -0.93015343 16 16
2.2888632 3.0187464 -1.7665445 16 0
22.638605 36.841732 -0.75478166 32 17
22.381514 29.518633 -1.0780952 10 15
3.4096818 4.9853115 -1.6907767 15 1
4.5286813 5.9728079 -1.4991207 35 2
31.155558 45.552685 0 29 20
28.723009 34.267166 -0.52054274 13 18
5.8861642 8.6061878 -1.6221319 13 3
8.139123 10.734563 -1.7147226 23 4
30.285227 49.285732 0.3362076 31 21
30.435764 40.141258 -0.292781 23 19
8.0151939 11.719052 -1.529346 7 5
10.857948 12.953766 -1.5778188 30 6
60.143852 71.752907 1.089978 63 22
12.026841 17.584501 -1.4897193 14 8
11.270381 14.864331 -1.5228176 11 7
12.382492 20.151085 -1.5157938 18 9
14.92433 17.805046 -1.3530114 17 10
15.769557 23.056742 -1.3011963 10 12
16.080593 21.208445 -1.394858 24 11
16.12631 26.243721 -1.2549242 20 13
21.501701 25.651993 -1.1688539 23 14
2.3015859 3.0136197 -1.7682348 14 0
22.7439 36.72509 -0.75401378 32 17
22.494112 29.453037 -1.0785606 10 15
3.4292479 4.9765525 -1.6918551 17 1
4.5471201 5.9538465 -1.4983362 35 2
31.362028 45.512829 0 29 20
28.775358 34.087238 -0.51933205 13 18
5.8757997 8.5270081 -1.6110637 13 3
7.6563244 10.024935 -1.6056268 13 4
30.488663 49.230728 0.33655632 32 21
30.218798 39.567482 -0.28936359 19 19
8.8007259 12.771686 -1.670714 13 5
10.990445 13.019261 -1.5904591 40 6
60.074013 71.163567 1.084204 63 22
11.965883 17.364986 -1.4746519 27 8
11.341551 14.850247 -1.5254213 19 7
12.467465 20.131498 -1.5175846 18 9
15.040481 17.816925 -1.357895 17 10
15.185652 22.03754 -1.2466619 9 12
16.021172 20.977585 -1.3833442 24 11
16.283049 26.292606 -1.2599719 20 13
21.637524 25.631771 -1.1713668 24 14
22.404463 32.513538 -0.91880101 16 16
2.3081951 2.9994173 -1.764854 15 0
22.867767 36.624516 -0.75366473 32 17
21.91184 28.473656 -1.0456301 10 15
3.4474657 4.9639492 -1.6918551 16 1
4.5713053 5.9402485 -1.4991207 37 2
31.403145 45.216873 0 29 20
29.016712 34.118641 -0.52142745 13 18
5.8867235 8.4761963 -1.6055294 13 3
7.7051191 10.012528 -1.6081523 17 4
30.664667 49.111862 0.33650982 32 21
30.605133 39.770279 -0.29166511 23 19
8.250843 11.880253 -1.5580479 7 5
11.061313 13.006192 -1.593805 22 6
60.331856 70.939842 1.0841575 63 22
12.018071 17.304623 -1.4732567 27 8
11.391046 14.802258 -1.5247704 20 7
12.116226 19.405083 -1.4661628 18 9
15.483391 18.205793 -1.3918482 7 10
15.081707 21.715902 -1.2315857 9 12
15.905502 20.668634 -1.3668059 15 11
16.495731 26.419203 -1.2689275 20 13
20.040165 23.56377 -1.0802093 11 14
22.354685 32.188145 -0.91191506 16 16
2.3186505 2.9913421 -1.764854 15 0
22.942219 36.45985 -0.75191951 32 17
3.4581468 4.9424176 -1.6886202 15 1
4.5848031 5.9149556 -1.4967673 34 2
30.008314 42.88818 0 26 20
29.43224 34.363457 -0.52673572 13 18
5.9094763 8.4458818 -1.6036847 13 3
7.7035565 9.938529 -1.600576 10 4
30.859343 49.041771 0.33676556 32 21
30.491365 39.337585 -0.28927061 19 19
8.750536 12.506352 -1.6441541 10 5
11.085918 12.943306 -1.5908308 34 6
40.630646 47.438099 0.72714865 42 22
12.128727 17.334496 -1.4793953 27 8
11.413334 14.724594 -1.5208648 14 7
12.587819 20.004604 -1.5147705 18 9
15.318254 17.884747 -1.3713833 21 10
15.949991 22.795885 -1.2959849 20 12
16.515478 26.246452 -1.2633913 20 13
21.900999 25.570396 -1.1756942 24 14
22.540266 32.214771 -0.91489285 16 16
2.3280375 2.9840426 -1.764854 13 0
22.981733 36.269348 -0.74947613 32 17
23.37418 29.960665 -1.1059058 10 15
3.4758756 4.9346766 -1.6896983 16 1
4.6226659 5.925262 -1.5030431 42 2
31.527283 44.759064 0 28 20
29.722857 34.482891 -0.52999526 13 18
5.9382586 8.4305048 -1.6042997 14 3
8.3107624 10.652608 -1.7197733 15 4
31.043247 48.991882 0.33709103 32 21
30.62219 39.251053 -0.28934035 19 19
11.157732 12.944613 -1.5952922 12 6
40.693314 47.210236 0.72561204 42 22
12.373849 17.567068 -1.5025544 28 8
11.503681 14.745241 -1.526723 7 7
12.652745 19.96833 -1.5150263 24 9
15.522977 18.00894 -1.384639 15 10
15.480807 21.977995 -1.2522455 9 12
16.501705 21.151632 -1.4059533 16 11
16.505875 26.049269 -1.2563896 20 13
22.0256 25.55294 -1.1780674 24 14
22.072567 31.336269 -0.89190876 15 16
2.3389578 2.9754903 -1.764854 15 0
23.036997 36.063541 -0.74696302 32 17
3.4917085 4.9187636 -1.6886202 15 1
4.6491981 5.9144473 -1.504612 39 2
31.644806 44.577984 0 28 20
29.914595 34.449223 -0.5311594 13 18
5.971405 8.4119072 -1.6049145 13 3
8.3350334 10.603359 -1.7167429 13 4
31.229046 48.887882 0.33716077 32 21
30.73617 39.100822 -0.28906137 19 19
8.9229403 12.569731 -1.6604328 13 5
11.372221 13.096088 -1.6190857 20 6
40.900154 47.100037 0.72621739 42 22
12.403502 17.472792 -1.4983691 14 8
11.969097 15.22641 -1.5810746 12 7
12.725843 19.921824 -1.5150263 24 9
14.408057 16.592113 -1.2797562 11 10
16.040026 22.595556 -1.2907734 10 12
16.403843 20.868042 -1.3910899 16 11
16.723869 26.180582 -1.2656709 20 13
21.990669 25.324144 -1.1712271 24 14
23.205774 32.689934 -0.93285197 29 16
2.3493309 2.9673071 -1.764854 15 0
22.970085 35.683601 -0.7407499 32 17
23.466358 29.639032 -1.1002041 21 15
3.5066171 4.9034114 -1.6875418 16 1
4.664947 5.8920312 -1.5030431 40 2
31.721117 44.356621 0 28 20
30.095232 34.413834 -0.53223032 13 18
5.9938354 8.3813658 -1.6030698 14 3
8.3350515 10.527534 -1.7091666 13 4
31.451477 48.859283 0.3377187 32 21
30.768198 38.861572 -0.28808495 19 19
9.0130329 12.603204 -1.6690005 13 5
11.307755 12.930393 -1.6034712 14 6
41.222305 47.137619 0.72901124 42 22
12.617616 17.643602 -1.5167848 21 8
11.767282 14.862589 -1.5475523 12 7
38.132305 48.162758 1.0722759 63 23
12.659189 19.665815 -1.498909 12 9
14.910146 17.049721 -1.3190582 12 10
16.107185 22.523176 -1.2898427 20 12
16.585691 20.94845 -1.400301 24 11
22.14473 25.322451 -1.1747171 24 14
23.101091 32.302971 -0.92410505 16 16
2.3619328 2.9619246 -1.7665445 14 0
23.066191 35.559605 -0.73984241 32 17
23.452492 29.410028 -1.0947349 10 15
3.5282116 4.8973937 -1.6896983 14 1
4.7123818 5.9094481 -1.5116721 39 2
31.669973 43.960045 0 28 20
29.681168 33.702267 -0.52282435 13 18
6.0507741 8.3988791 -1.6104488 13 3
8.3346338 10.451845 -1.7015907 14 4
31.682756 48.843189 0.33836964 32 21
30.98344 38.854031 -0.28882888 19 19
9.0616131 12.578125 -1.6698574 15 5
11.108015 12.612889 -1.5688961 14 6
41.553108 47.182571 0.7319448 42 22
12.658122 17.57032 -1.5142735 21 8
38.382446 48.132576 1.0745796 63 23
12.606095 19.433975 -1.4845825 12 9
15.568658 17.677843 -1.3718485 18 10
16.414579 22.784536 -1.3080829 10 12
16.0585 20.137772 -1.3498491 23 11
16.771374 25.855309 -1.2555755 20 13
22.188057 25.194016 -1.172344 12 14
23.220697 32.231884 -0.92438412 16 16
2.369473 2.9512482 -1.764854 13 0
23.135866 35.409252 -0.73830658 32 17
22.110569 27.539364 -1.0278268 30 15
3.5399106 4.8794303 -1.6875418 13 1
4.736865 5.8999047 -1.5132412 39 2
31.766264 43.786777 0 28 20
30.41633 34.306965 -0.53376698 13 18
6.1064467 8.4171572 -1.6178277 13 3
8.3642817 10.417958 -1.7005805 14 4
31.888327 48.804821 0.33883458 32 21
30.974394 38.579517 -0.28755027 19 19
9.1172905 12.567319 -1.6724277 18 5
11.160351 12.587902 -1.570383 18 6
41.690777 47.023556 0.73161882 42 22
12.739757 17.560545 -1.5170639 28 8
11.653519 14.5148 -1.519563 22 7
12.493619 19.121382 -1.4638603 12 9
15.661637 17.664959 -1.3748716 18 10
16.525249 22.778486 -1.3108748 20 12
16.302753 20.305559 -1.3647126 15 11
16.13343 24.692083 -1.201679 10 13
22.263531 25.11132 -1.1719251 12 14
2.3757148 2.9369061 -1.7614731 15 0
23.210505 35.240711 -0.73656136 32 17
24.014328 29.686991 -1.1112584 10 15
3.5577714 4.8664227 -1.6875418 13 1
4.7732601 5.9007993 -1.5179479 38 2
32.077633 43.876709 0 28 20
30.605825 34.266838 -0.53488451 13 18
6.130259 8.3851452 -1.6159829 13 3
8.4498272 10.445845 -1.7101769 14 4
32.111004 48.754414 0.33929953 32 21
30.959629 38.272911 -0.28610891 19 19
9.1773748 12.553079 -1.6749979 16 5
61.611305 68.981133 1.0767536 63 22
12.556763 17.175503 -1.487766 14 8
11.714167 14.481287 -1.5205394 22 7
11.74903 17.838654 -1.3689473 16 9
14.970825 16.761608 -1.3088257 12 10
16.615704 22.72744 -1.3114332 20 12
16.367023 20.233242 -1.3638752 15 11
17.065798 25.911148 -1.2640426 20 13
22.283525 24.949041 -1.1681559 11 14
23.346045 31.933393 -0.9204759 16 16
2.381372 2.9229748 -1.7580922 15 0
22.93309 34.556328 -0.72392583 32 17
24.16831 29.664984 -1.1135857 21 15
3.5724523 4.850873 -1.6864636 13 1
4.7888722 5.8780203 -1.516379 31 2
31.35058 42.569553 0 27 20
30.620926 34.043823 -0.53306854 13 18
6.1430836 8.3414183 -1.6116785 14 3
32.345123 48.738686 0.33997372 32 21
30.979342 38.02507 -0.28506279 19 19
9.0937853 12.348044 -1.651865 9 5
11.22351 12.478106 -1.5666653 40 6
61.677849 68.572372 1.073727 63 22
12.592976 17.099438 -1.4849757 28 8
11.880475 14.582489 -1.5355105 16 7
11.879649 17.900642 -1.376878 16 9
15.707531 17.463364 -1.367895 20 10
16.645174 22.601738 -1.3075246 20 12
17.002705 20.869684 -1.4107682 32 11
17.078785 25.734869 -1.2583436 20 13
21.122026 23.483107 -1.1029637 11 14
23.54985 31.977287 -0.92410505 16 16
2.3956492 2.9206681 -1.7614731 15 0
22.983097 34.383671 -0.72190136 32 17
24.205688 29.510489 -1.110793 10 15
3.5885177 4.8390002 -1.6864636 14 1
4.604362 5.6134319 -1.4520525 40 2
31.448675 42.407528 0 26 20
29.477238 32.554531 -0.51127642 13 18
6.1660008 8.3146544 -1.6104488 13 3
8.3621922 10.194809 -1.6783574 19 4
32.579914 48.740906 0.34074089 32 21
31.069742 37.878834 -0.28473729 19 19
9.0470285 12.199627 -1.6360147 12 5
11.29423 12.473297 -1.5707549 20 6
61.792126 68.24295 1.0717713 63 22
12.704274 17.131304 -1.4913934 21 8
11.933821 14.549179 -1.5361614 12 7
12.591123 18.836843 -1.4520921 23 9
15.733189 17.375664 -1.3651043 17 10
16.815231 22.674799 -1.3149697 10 12
17.081947 20.825544 -1.4116056 24 11
17.119604 25.611641 -1.255087 20 13
23.746269 32.02108 -0.92764103 16 16
2.4040294 2.9090729 -1.7597824 13 0
23.837486 35.380482 -0.7446593 32 17
24.344259 29.458553 -1.1121893 10 15
3.6062303 4.8258147 -1.6864636 13 1
4.6274056 5.5995412 -1.452837 41 2
32.494629 43.483929 0 28 20
30.744638 33.705109 -0.53111279 13 18
6.1538486 8.2350073 -1.5993804 14 3
8.3009253 10.044801 -1.6586595 20 4
32.724827 48.571404 0.3403922 32 21
31.10391 37.638287 -0.28378415 19 19
9.0988264 12.175942 -1.6372999 10 5
11.396237 12.493607 -1.5785623 14 6
61.750744 67.696861 1.0667423 63 22
12.549621 16.793755 -1.466002 20 8
11.926119 14.431583 -1.5283504 21 7
12.686851 18.830294 -1.455162 29 9
15.737568 17.252974 -1.359988 17 10
16.824083 22.51379 -1.3091997 20 12
16.153055 19.546524 -1.3289148 23 11
17.309397 25.691246 -1.2620887 20 13
21.355499 23.411867 -1.1065933 23 14
23.956837 32.058758 -0.93127006 29 16
2.4141684 2.9006639 -1.7597824 15 0
24.388103 29.302717 -1.109513 10 15
3.6207359 4.8101206 -1.6853852 14 1
4.6519399 5.5893841 -1.4544059 41 2
32.807384 43.584362 0 28 20
30.816101 33.547516 -0.53032124 13 18
6.165916 8.1913729 -1.595076 13 3
8.4196997 10.11641 -1.6753268 22 4
32.914379 48.486664 0.34060141 32 21
31.324646 37.637089 -0.28459781 19 19
9.3373947 12.404658 -1.6724277 10 5
11.415526 12.427353 -1.5752161 34 6
61.567265 67.024338 1.0595249 63 22
12.581764 16.714779 -1.4629327 20 8
11.92541 14.328581 -1.5218412 28 7
13.111217 19.314329 -1.4960948 18 9
15.757171 17.153824 -1.3564997 17 10
16.787222 22.301699 -1.3002658 10 12
16.93667 20.349693 -1.387531 24 11
17.434877 25.683577 -1.2646939 20 13
21.602049 23.516768 -1.1151087 23 14
23.178764 30.792814 -0.89684063 15 16
2.4209423 2.8902855 -1.7580922 13 0
23.967806 35.069714 -0.74144804 32 17
23.797123 28.410622 -1.0785606 10 15
3.6381574 4.8017907 -1.6864636 13 1
4.6871085 5.595789 -1.4598972 39 2
32.403061 42.766903 0 27 20
30.869766 33.394726 -0.52943653 13 18
6.1868482 8.165659 -1.5938461 14 3
8.4132233 10.044278 -1.6677507 26 4
33.118465 48.458961 0.34113613 32 21
31.568598 37.68874 -0.28573695 19 19
9.3955364 12.400618 -1.6758548 13 5
11.513992 12.455767 -1.5833952 24 6
61.826412 66.883438 1.0603631 63 22
11.955009 14.272703 -1.5198884 22 7
13.117779 19.193945 -1.4899549 24 9
15.8652 17.162878 -1.3611509 15 10
16.444588 21.704248 -1.2684385 19 12
17.005653 20.302505 -1.3879497 16 11
17.535782 25.658371 -1.2661594 20 13
21.705679 23.481071 -1.1166444 23 14
23.963661 31.628233 -0.92336059 16 16
2.4361949 2.8869348 -1.7614731 15 0
24.066681 34.93882 -0.7405405 32 17
23.803102 28.207104 -1.074139 10 15
3.6557312 4.788425 -1.6864636 14 1
4.7505889 5.6295333 -1.4732332 35 2
31.744017 41.579601 0 26 20
30.901997 33.184769 -0.52789986 27 18
6.195148 8.1146564 -1.588312 13 3
8.4755707 10.043703 -1.6728016 21 4
33.418369 48.515141 0.34239149 33 21
31.843239 37.73481 -0.28696907 19 19
8.9051628 11.664343 -1.5807525 9 5
11.494425 12.343533 -1.5744727 32 6
62.002975 66.583221 1.059199 63 22
12.721883 16.663639 -1.466002 13 8
12.094658 14.332387 -1.530954 11 7
12.454361 18.080627 -1.4070661 17 9
16.006914 17.189365 -1.367895 12 10
16.42461 21.51362 -1.2608073 9 12
17.025848 20.175936 -1.3835535 24 11
17.631969 25.597223 -1.2663223 20 13
21.780691 23.38966 -1.1160859 34 14
22.441444 29.394714 -0.86055005 15 16
2.4410601 2.8733149 -1.7580922 13 0
24.186964 34.865398 -0.74068016 32 17
3.6715894 4.7762766 -1.6864636 12 1
4.807323 5.6585875 -1.4850003 36 2
32.795898 42.663345 0 27 20
31.050163 33.122971 -0.52855176 13 18
6.2653804 8.1504726 -1.5993804 13 3
8.5216732 10.030663 -1.6753268 18 4
33.6315 48.479652 0.34292617 33 21
31.898262 37.5467 -0.28634137 19 19
9.4527884 12.29689 -1.670714 15 5
11.717787 12.500028 -1.5993816 30 6
62.141361 66.289711 1.057802 63 22
13.000801 16.912409 -1.4916724 21 8
12.02338 14.15244 -1.5159829 8 7
13.092176 18.872313 -1.4720469 24 9
16.011936 17.080841 -1.3634764 15 10
16.960976 22.064098 -1.296357 20 12
17.121105 20.152853 -1.3858563 24 11
17.033321 24.553455 -1.2174735 10 13
21.923746 23.387304 -1.1194363 34 14
23.386923 30.423449 -0.89293242 15 16
2.4534323 2.8675303 -1.7597824 14 0
23.655567 33.846489 -0.72078443 32 17
3.6882405 4.7634306 -1.6864636 15 1
4.8372469 5.6536927 -1.4881381 39 2
33.155231 42.820595 0 28 20
30.284258 32.08075 -0.51360464 13 18
6.2986345 8.1348028 -1.6006103 13 3
8.5592165 10.003868 -1.6758319 19 4
33.9174 48.529163 0.34411183 33 21
31.714495 37.067368 -0.28352842 19 19
11.632858 12.32293 -1.5819081 32 6
43.743317 46.338215 0.74186301 42 22
12.998689 16.788046 -1.4846967 21 8
13.039069 18.656357 -1.4587437 29 9
16.186596 17.146799 -1.3732438 10 10
16.683193 21.546652 -1.269369 9 12
17.17837 20.077789 -1.3848095 24 11
16.954086 24.25798 -1.2057498 10 13
22.032696 23.339697 -1.1208322 23 14
23.50033 30.351109 -0.8932116 15 16
2.4639251 2.8585196 -1.7597824 10 0
23.53993 33.419521 -0.71352422 31 17
3.7009346 4.7438068 -1.6843069 13 1
4.8553739 5.6329556 -1.4873537 38 2
32.923195 42.2005 0 27 20
30.25279 31.81303 -0.51109016 27 18
6.2895064 8.0618029 -1.5907717 13 3
8.5776882 9.9513931 -1.6722964 20 4
34.106541 48.420883 0.34422806 33 21
32.667538 37.8992 -0.29080495 23 19
9.3056965 11.927914 -1.6295888 9 5
11.614819 12.213834 -1.5733573 38 6
62.269588 65.481041 1.0519814 63 22
12.846592 16.466585 -1.4604216 20 8
12.249285 14.210991 -1.531605 25 7
40.781239 47.312298 1.0902867 63 23
13.201604 18.74225 -1.4692328 18 9
15.696219 16.505728 -1.3265001 12 10
16.997997 21.787798 -1.287237 9 12
17.325964 24.597582 -1.2257777 19 13
22.29715 23.44709 -1.1299062 23 14
23.665522 30.334139 -0.89525867 15 16
2.4738891 2.8499005 -1.7597824 13 0
24.167955 34.057961 -0.72895211 32 17
24.451477 28.167906 -1.0855424 10 15
3.719852 4.7338867 -1.6853852 14 1
4.9084344 5.6544771 -1.4975517 36 2
33.463272 42.585388 0 28 20
30.391325 31.736109 -0.51155579 13 18
6.2638855 7.971426 -1.5772436 13 3
8.6565952 9.9723282 -1.6808826 18 4
34.256847 48.275425 0.34404206 33 21
32.768177 37.748676 -0.29052597 19 19
9.4136238 11.979786 -1.6411552 10 5
11.797868 12.319911 -1.5923178 32 6
62.359486 65.118828 1.0496533 63 22
12.886739 16.399675 -1.4584683 27 8
12.309273 14.180183 -1.5329068 24 7
13.317773 18.767668 -1.474861 18 9
15.637745 16.329699 -1.3167326 20 10
16.925827 21.539822 -1.2760695 9 12
17.092543 24.087147 -1.2033074 10 13
22.478399 23.473045 -1.1349316 11 14
22.990509 29.25774 -0.86585408 15 16
2.4785559 2.8362212 -1.7564015 15 0
25.015566 35.005863 -0.75101197 32 17
3.7307515 4.7154832 -1.6832286 14 1
4.9271598 5.6381679 -1.4975517 40 2
33.733379 42.637302 0 28 20
31.384706 32.556618 -0.52645636 27 18
6.26086 7.913414 -1.5698647 13 3
8.6843987 9.9375896 -1.6798725 19 4
34.400482 48.138767 0.34387934 33 21
32.80896 37.543419 -0.28978202 19 19
9.428627 11.917313 -1.6368713 10 5
11.81102 12.252045 -1.5886002 34 6
44.298351 45.952457 0.7430737 42 22
12.983147 16.410048 -1.4632119 20 8
12.382467 14.169305 -1.5361614 21 7
41.181313 47.123932 1.092381 63 23
13.479739 18.86305 -1.4858617 18 9
15.614213 16.19725 -1.3102211 17 10
16.488729 18.868116 -1.3132139 15 11
22.625483 23.470322 -1.1384217 23 14
25.000406 31.599262 -0.93759757 29 16
2.4860444 2.8248327 -1.7547113 14 0
24.976357 34.694386 -0.74619508 32 17
23.733953 26.968321 -1.0455139 10 15
3.7495856 4.7054462 -1.6843069 15 1
4.9468069 5.6209378 -1.4975517 39 2
33.772285 42.381664 0 28 20
31.581715 32.532982 -0.52785331 27 18
6.2736597 7.8729687 -1.5661753 13 3
8.6980553 9.8833904 -1.6758319 18 4
34.694473 48.193714 0.34513471 33 21
32.916004 37.401661 -0.28957281 19 19
9.6585217 12.120714 -1.6694288 10 5
11.906416 12.265047 -1.5956639 26 6
44.341442 45.67704 0.74111795 42 22
12.988114 16.299101 -1.4573522 27 8
12.45818 14.155931 -1.5394158 20 7
41.364021 47.000942 1.0928696 63 23
13.498845 18.751099 -1.4807451 18 9
15.653958 16.125467 -1.3088257 15 10
17.156704 21.530365 -1.2823977 9 12
16.670595 18.942396 -1.3224251 15 11
18.383928 25.536915 -1.2819538 20 13
22.840908 23.528894 -1.1451223 11 14
25.030785 31.411741 -0.93461996 29 16
2.503598 2.8238375 -1.7597824 16 0
24.739353 34.100826 -0.73537457 32 17
23.978544 27.045681 -1.0519136 20 15
3.7643988 4.6886654 -1.6832286 15 1
4.9205418 5.5499368 -1.4834312 37 2
33.511726 41.739807 0 27 20
31.71475 32.431286 -0.52808613 27 18
6.2727861 7.812933 -1.5587963 14 3
8.7026405 9.8158102 -1.6697711 20 4
35.044727 48.305794 0.34685504 33 21
32.999821 37.220886 -0.28910786 19 19
9.5236235 11.861943 -1.638585 10 5
11.981928 12.252638 -1.5997534 28 6
38.639965 48.127174 1.4361733 63 24
36.080036 36.895199 0.60077304 21 22
12.350799 15.38327 -1.3795041 12 8
12.602561 14.214576 -1.550807 14 7
13.504203 18.614248 -1.4738376 24 9
15.648755 16.002308 -1.303477 7 10
17.117947 21.320889 -1.2736499 9 12
18.475071 25.466112 -1.281791 20 13
24.59749 30.636871 -0.91424143 16 16
2.510534 2.8128159 -1.7580922 14 0
25.281677 34.606358 -0.74807996 32 17
24.145304 27.052526 -1.0552882 20 15
3.7799258 4.676157 -1.6832286 16 1
4.9206357 5.5131063 -1.47794 39 2
33.999477 42.060848 0 28 20
31.802475 32.305996 -0.52776021 13 18
6.3061132 7.8013105 -1.5606411 14 3
8.695508 9.7424927 -1.662195 17 4
35.254265 48.257149 0.34734324 33 21
33.101753 37.087379 -0.28892186 19 19
9.5229034 11.780811 -1.6317308 18 5
12.016903 12.207164 -1.5990099 34 6
46.168861 46.899841 0.76616955 42 22
12.557265 15.534628 -1.3968036 19 8
12.585913 14.101324 -1.5429959 20 7
13.69301 18.743425 -1.4876524 12 9
16.060307 16.314585 -1.3332441 12 10
16.42244 20.316246 -1.2168819 9 12
16.767862 18.786802 -1.3197036 7 11
18.573559 25.424074 -1.2827679 20 13
22.261457 22.613916 -1.1081288 23 14
2.5154898 2.7986436 -1.7547113 13 0
25.475801 34.617756 -0.75024408 32 17
23.052858 25.647781 -1.0036234 10 15
3.7962241 4.6629353 -1.6832286 14 1
4.9949107 5.557158 -1.4944139 41 2
34.052635 41.827148 0 28 20
31.943201 32.223198 -0.52822584 13 18
6.3233228 7.7669926 -1.5581814 14 3
8.7055864 9.6855221 -1.6576493 19 4
35.427231 48.140244 0.34738973 33 21
31.792452 35.37114 -0.27641463 18 19
9.6116705 11.806098 -1.63987 13 5
12.031401 12.136861 -1.5952922 30 6
46.413944 46.820782 0.76752001 43 22
12.601333 15.478326 -1.3956876 19 8
12.597744 14.015797 -1.5384396 18 7
13.734692 18.663366 -1.4850942 18 9
17.212214 21.141911 -1.2699275 19 12
17.321991 19.271824 -1.3580135 23 11
18.591122 25.262522 -1.2778831 20 13
22.385284 22.581501 -1.1103624 11 14
25.426525 31.231623 -0.9371323 29 16
2.5276771 2.7925327 -1.7564015 12 0
24.71525 33.339855 -0.72441453 32 17
23.923054 26.429762 -1.0374848 10 15
3.8100369 4.6466761 -1.6821502 13 1
5.0063834 5.5309629 -1.4920604 40 2
33.20171 40.492413 0 26 20
31.445127 31.500053 -0.51816791 13 18
6.260179 7.6348405 -1.5360447 11 3
8.7100544 9.6227131 -1.6520935 25 4
35.642704 48.080544 0.34785467 33 21
33.126335 36.597385 -0.28689933 19 19
9.6452627 11.763248 -1.638585 14 5
12.031488 12.052505 -1.5897154 24 6
46.438641 46.51976 0.76523823 42 22
12.581918 15.344758 -1.3875958 12 8
12.681376 14.010159 -1.5426705 14 7
13.785495 18.596066 -1.4835593 18 9
16.396685 16.425325 -1.351616 15 10
17.306181 21.106413 -1.2714164 29 12
17.139866 18.935818 -1.3385446 31 11
18.353121 24.757605 -1.2555755 20 13
22.613661 22.653162 -1.117761 34 14
25.220995 30.759228 -0.92559385 16 16
2.5393646 2.7868154 -1.7580922 14 0
24.689301 33.075035 -0.72043538 32 17
23.280764 25.549379 -1.0059507 10 15
3.8254235 4.6340165 -1.6821502 12 1
5.0537558 5.5462236 -1.5006896 43 2
34.229603 41.464832 0 27 20
32.258186 32.100941 -0.529809 13 18
6.0262933 7.3000917 -1.4727091 10 3
8.7472591 9.5996447 -1.6531037 23 4
35.892864 48.083897 0.3487381 63 21
33.231342 36.469601 -0.28675985 19 19
9.6588964 11.700531 -1.6343012 11 5
11.989518 11.931074 -1.578934 26 6
47.057606 46.828217 0.77287489 43 22
12.614948 15.281413 -1.3856425 8 8
12.754613 13.997499 -1.545925 14 7
13.653667 18.291143 -1.462837 18 9
15.783053 15.706117 -1.2967328 9 10
17.505802 21.206064 -1.2809088 19 12
17.536171 19.244999 -1.3645031 15 11
18.585732 24.898386 -1.2658337 20 13
22.014254 21.906944 -1.0845368 11 14
25.060635 30.357788 -0.91600949 16 16
2.5466251 2.7752635 -1.7564015 13 0
25.049761 33.314709 -0.72755593 32 17
24.378119 26.566811 -1.0493537 30 15
3.8415751 4.6206355 -1.6821502 13 1
5.0836906 5.5401096 -1.5038275 34 2
34.3997 41.375858 0 27 20
31.838034 31.46242 -0.52110147 13 18
6.0567904 7.28509 -1.4739387 10 3
8.7699814 9.5573587 -1.6510834 20 4
36.072502 47.974308 0.34885433 63 21
33.350319 36.344543 -0.28669012 19 19
9.7683258 11.749313 -1.6458676 11 5
12.056587 11.914348 -1.5822799 34 6
47.198013 46.641186 0.7725023 43 22
12.673314 15.243425 -1.3862007 12 8
12.784525 13.932332 -1.5436468 32 7
13.868566 18.444376 -1.4789542 18 9
15.675879 15.49094 -1.2834771 9 10
17.505634 21.055725 -1.2755111 9 12
17.665354 19.251366 -1.3693181 16 11
18.014399 23.958092 -1.2212186 19 13
22.69055 22.422855 -1.113992 11 14
2.5592418 2.7685728 -1.7580922 12 0
24.613752 26.627016 -1.0552882 10 15
3.8584859 4.606524 -1.6821502 15 1
5.0800018 5.4955163 -1.4967673 35 2
34.574242 41.277092 0 28 20
32.130165 31.519165 -0.52398843 13 18
6.2636466 7.4779692 -1.5175974 13 3
8.7914877 9.510581 -1.648558 18 4
36.245689 47.838573 0.34883109 63 21
33.339413 36.066383 -0.28545797 19 19
10.010514 11.951236 -1.6792818 13 5
12.049002 11.819873 -1.575588 34 6
45.427082 44.563221 0.74083859 42 22
12.706041 15.169339 -1.3836894 16 8
12.865275 13.917581 -1.5472269 25 7
13.634744 17.995705 -1.4469755 17 9
17.66993 21.095568 -1.2818395 9 12
17.372461 18.793428 -1.341266 15 11
18.068304 23.847301 -1.2189389 10 13
22.886734 22.451511 -1.1195759 34 14
25.002474 29.849661 -0.90605283 16 16
2.5634689 2.7547636 -1.7547113 12 0
25.86392 33.902145 -0.74431026 32 17
23.6696 25.435907 -1.011187 10 15
3.8762228 4.5966487 -1.6832286 15 1
5.0367403 5.4125991 -1.4787245 18 2
34.447906 40.850315 0 27 20
6.2603812 7.4239211 -1.5108333 14 3
8.8148661 9.472662 -1.6470428 20 4
36.34589 47.6418 0.34827316 34 21
33.714958 36.230885 -0.28764325 19 19
10.068036 11.939259 -1.6822807 13 5
12.113799 11.804871 -1.578934 46 6
47.722988 46.505947 0.77576178 43 22
12.766562 15.139327 -1.3848056 16 8
12.979252 13.947807 -1.5553634 12 7
13.987309 18.334412 -1.477931 18 9
17.399309 18.697704 -1.3385446 23 11
17.647902 23.132679 -1.1853961 10 13
22.322611 21.753336 -1.0884455 23 14
25.078117 29.739079 -0.90521532 16 16
2.5730698 2.7457981 -1.7547113 14 0
25.343649 32.980789 -0.7260201 32 17
24.004309 25.6157 -1.0216596 10 15
3.8872588 4.5772166 -1.681072 13 1
5.0207381 5.3577766 -1.4685264 20 2
34.510036 40.635296 0 27 20
31.85247 30.824102 -0.51602596 13 18
6.2478819 7.3568316 -1.5016098 16 3
8.8234615 9.4157734 -1.6424971 20 4
36.626534 47.663696 0.3493658 63 21
33.824821 36.095455 -0.28750378 19 19
10.086485 11.876756 -1.6784251 13 5
12.166385 11.773589 -1.5804211 40 6
63.31979 61.27549 1.0258123 63 22
12.827084 15.103789 -1.3856425 24 8
13.044221 13.919868 -1.5573162 16 7
13.440727 17.491001 -1.4137176 17 9
17.880362 21.053986 -1.2866786 9 12
17.188604 18.342463 -1.3174008 31 11
17.723679 23.064592 -1.1850705 10 13
21.941658 21.233263 -1.0662495 11 14
25.249084 29.730598 -0.90763474 16 16
2.5826397 2.736799 -1.7547113 15 0
25.319094 32.711838 -0.72204095 32 17
17.288109 18.320045 -0.73308146 3 15
3.9032137 4.5636187 -1.681072 13 1
5.0367193 5.3373637 -1.4677418 21 2
34.604881 40.459858 0 27 20
32.395359 31.131207 -0.52305716 13 18
6.2015929 7.2508726 -1.4843922 15 3
8.831768 9.358942 -1.6379515 17 4
36.954288 47.744308 0.35090014 63 21
33.892975 35.916069 -0.28701556 19 19
10.094279 11.802183 -1.6728561 15 5
12.287818 11.808314 -1.5908308 32 6
47.916756 46.046917 0.7736665 43 22
12.887513 15.068018 -1.3864797 20 8
13.139249 13.923538 -1.5628488 13 7
13.816892 17.851189 -1.4467196 23 9
15.870493 15.251184 -1.2818491 14 10
17.961542 21.000549 -1.287237 19 12
16.712448 17.710024 -1.2761601 22 11
17.794302 22.989937 -1.1844192 10 13
23.243544 22.336517 -1.1257181 23 14
25.721806 30.073812 -0.92084819 16 16
2.5921752 2.7277689 -1.7547113 15 0
25.890472 33.209953 -0.73502553 32 17
3.9166033 4.547051 -1.6799937 14 1
5.0634217 5.3282838 -1.4700953 27 2
34.677998 40.260048 0 27 20
31.716747 30.266878 -0.51039165 13 18
6.1933279 7.1902556 -1.4763983 17 3
8.8698435 9.3338146 -1.6389616 16 4
37.216599 47.738079 0.35180679 63 21
34.114552 35.899044 -0.28782922 19 19
10.148384 11.781949 -1.6749979 12 5
12.34624 11.781857 -1.5930614 36 6
63.346684 60.450912 1.0193864 63 22
12.736897 14.787129 -1.3647157 20 8
12.921371 13.597274 -1.5312796 12 7
13.753938 17.642305 -1.4336723 17 9
15.825398 15.101972 -1.2739424 21 10
17.925201 20.810587 -1.2794198 19 12
16.826437 17.706608 -1.2801377 22 11
17.670473 22.66608 -1.1709044 10 13
22.407473 21.383158 -1.0816052 22 14
25.50038 29.605125 -0.90921664 16 16
2.5991752 2.7160838 -1.7530206 15 0
23.741289 30.234907 -0.67101014 17 17
24.788168 25.903118 -1.0434192 10 15
3.9349766 4.5362597 -1.681072 13 1
5.090127 5.3190761 -1.4724487 25 2
34.80785 40.126656 0 27 20
31.996408 30.321043 -0.51318556 13 18
6.1821318 7.1267915 -1.4677896 18 3
8.8584776 9.2569246 -1.6308804 17 4
37.402782 47.633034 0.35199276 63 21
34.134575 35.669918 -0.28694582 19 19
10.155574 11.707395 -1.6694288 13 5
11.950776 11.325022 -1.5369233 18 6
48.907669 46.346813 0.78442281 43 22
12.814586 14.772716 -1.3675059 8 8
13.169974 13.762347 -1.555038 20 7
13.746412 17.506275 -1.426509 23 9
15.846139 15.016419 -1.2713842 19 10
17.783045 20.50038 -1.2641575 29 12
16.675489 17.425539 -1.2640181 15 11
22.490688 21.313053 -1.082024 11 14
24.573769 28.328758 -0.87264693 15 16
2.6111555 2.7096057 -1.7547113 17 0
23.77969 30.067158 -0.66912526 17 17
24.26528 25.18017 -1.0177033 10 15
3.9457178 4.516696 -1.6789154 14 1
5.1141052 5.3069258 -1.4740176 19 2
34.863483 39.90852 0 27 20
6.1991682 7.0962396 -1.4659449 17 3
8.9155159 9.2516632 -1.635426 16 4
37.558887 47.489643 0.35189977 63 21
34.308834 35.602402 -0.2873643 19 19
10.13358 11.599994 -1.6591476 13 5
12.384685 11.654433 -1.5874847 22 6
49.098274 46.203236 0.78488845 43 22
12.884447 14.748935 -1.3694592 12 8
13.289859 13.790935 -1.5634999 29 7
13.775242 17.417484 -1.4231833 17 9
15.907181 14.969228 -1.2720819 19 10
17.596872 20.143288 -1.2459173 9 12
16.683546 17.312578 -1.2600405 22 11
18.562136 23.470058 -1.2191018 10 13
22.538742 21.209766 -1.0807676 22 14
25.703808 29.423365 -0.90912354 16 16
2.6155488 2.6952703 -1.7513301 15 0
23.944315 30.059042 -0.67080069 17 17
25.78982 26.57589 -1.077746 10 15
3.9614613 4.5028949 -1.6789154 15 1
5.1489892 5.3059297 -1.4787245 17 2
34.936535 39.711491 0 27 20
32.90575 30.749607 -0.5243144 13 18
6.1769109 7.0211415 -1.4548767 17 3
8.9339409 9.2062454 -1.6329007 17 4
37.759335 47.402042 0.35222524 63 21
33.939854 34.974335 -0.28324947 19 19
10.155625 11.543648 -1.6561489 13 5
12.186684 11.388153 -1.5569992 16 6
49.01379 45.80217 0.78097707 43 22
12.959579 14.730831 -1.3719703 16 8
12.890915 13.283828 -1.5111011 14 7
13.756373 17.269377 -1.4149967 17 9
15.804708 14.769107 -1.2597564 16 10
17.350376 19.721741 -1.2235825 9 12
17.870525 18.415216 -1.3448249 23 11
18.267941 22.933075 -1.1945146 10 13
23.485958 21.947044 -1.1225075 23 14
25.716557 29.231373 -0.90595973 16 16
2.6325431 2.6939015 -1.7564015 15 0
26.649483 33.216434 -0.74333292 32 17
23.828499 24.383886 -0.99221992 10 15
3.9771566 4.489038 -1.6789154 14 1
5.1784458 5.2991433 -1.4818623 17 2
35.072304 39.586296 0 27 20
33.042213 30.661751 -0.52478004 13 18
6.1961412 6.9936175 -1.4536468 16 3
8.9493856 9.1579742 -1.6298703 17 4
38.057247 47.435295 0.35345736 63 21
33.880024 34.669689 -0.28173834 18 19
10.158939 11.466449 -1.6501515 12 5
12.156299 11.280522 -1.5480765 30 6
49.273067 45.723286 0.78256029 43 22
13.974107 15.77265 -1.4735358 27 8
13.419256 13.732027 -1.5674053 16 7
13.134616 16.371241 -1.3451551 16 9
15.832751 14.692112 -1.2578959 16 10
17.466812 19.714884 -1.2269328 18 12
18.522963 23.087381 -1.2059126 10 13
22.504597 20.883297 -1.0721126 22 14
25.7495 29.063599 -0.90354037 16 16
2.6368449 2.6795287 -1.7530206 15 0
26.772799 33.132542 -0.74354237 32 17
24.132215 24.522856 -1.0012962 10 15
3.9928012 4.4751282 -1.6789154 13 1
5.2134185 5.2978106 -1.4865692 14 2
35.258198 39.517357 0 27 20
33.410812 30.787458 -0.52892429 13 18
6.2099895 6.9601512 -1.4511871 16 3
8.9284163 9.0729456 -1.6202739 19 4
