# .PCD v0.7 - Point Cloud Data file format
VERSION 0.7
FIELDS x y z intensity ring
SIZE 4 4 4 4 2
TYPE F F F F U
COUNT 1 1 1 1 1
WIDTH 1290
HEIGHT 1
VIEWPOINT 0 0 0 1 0 0 0
POINTS 1290
DATA ascii
-0.66778487 0.46205127 -0.37866598 11 0
-85.891876 59.429993 -3.0397282 63 15
-6.4403615 4.0056524 -2.1231756 13 1
-8.5636845 5.9253531 -2.0827658 26 2
-12.223463 7.6025152 -2.2395015 8 3
-15.349356 10.62047 -2.3758628 19 4
-18.158609 11.293944 -2.3034434 13 5
-19.15593 14.688238 -2.2533362 27 6
-29.038168 18.060602 -2.391252 21 8
-23.254154 16.089928 -2.3084731 14 7
-31.945211 17.765867 -2.3426371 16 9
-27.319035 20.947481 -2.0048661 7 10
-58.667423 36.488838 -3.2182786 63 12
-46.776451 32.365391 -2.9810565 49 11
-80.748184 44.906937 -3.7642841 63 13
-89.3106 68.480904 -3.9301023 63 14
-83.123482 51.699547 -2.2778337 63 16
-0.66616797 0.46437946 -0.37866598 11 0
-86.192314 60.083855 -3.0577643 63 15
-6.4230766 4.0260634 -2.1220973 12 1
-8.5172071 5.9372654 -2.0764899 26 2
-12.086336 7.5758638 -2.2192094 11 3
-15.471692 10.785172 -2.4006116 13 4
-18.082008 11.334024 -2.2987311 6 5
-19.057262 14.718499 -2.2477596 24 6
-28.961422 18.153374 -2.3901358 21 8
-20.273996 14.132813 -2.0175138 8 7
-31.983974 17.933886 -2.3500562 16 9
-27.880991 21.533331 -2.05161 7 10
-56.65733 35.513512 -3.1147935 63 12
-44.962475 31.34292 -2.872407 49 11
-89.545593 69.158768 -3.9510419 63 14
-83.382996 52.265484 -2.2899306 63 16
-0.66462439 0.46658605 -0.37866598 11 0
-86.349281 60.619762 -3.0704477 63 15
-6.4064331 4.0452852 -2.1210191 12 1
-8.4878407 5.9587164 -2.0741365 26 2
-12.101251 7.6412268 -2.2265885 8 3
-15.331919 10.763463 -2.3844492 10 4
-18.995771 14.771835 -2.2462723 20 6
-28.84708 18.215231 -2.3856714 21 8
-22.971159 16.126436 -2.2912238 10 7
-31.97298 18.067347 -2.3536377 16 9
-27.711708 21.549679 -2.0444007 7 10
-58.258911 36.787071 -3.2095308 63 12
-44.635979 31.335783 -2.8581715 48 11
-81.108711 45.83305 -3.7955472 63 13
-89.789108 69.823433 -3.9719815 63 14
-83.61496 52.797924 -2.3010969 63 16
-0.66595137 0.47099653 -0.38035646 11 0
-86.646393 61.280975 -3.0886002 63 15
-6.3890233 4.0655551 -2.1199408 13 1
-8.4573822 5.981514 -2.0717831 25 2
-11.987804 7.6282516 -2.2106009 10 3
-15.50159 10.963555 -2.416774 12 4
-18.621813 11.849699 -2.3775547 10 5
-18.715208 14.658779 -2.2191327 23 6
-28.726091 18.279398 -2.3809278 21 8
-22.836607 16.151272 -2.2834127 10 7
-32.079674 18.275667 -2.3661733 16 9
-27.50742 21.545322 -2.0348659 7 10
-56.201904 35.763203 -3.1030676 63 12
-45.964546 32.508591 -2.9504921 49 11
-81.260773 46.293949 -3.8102019 63 13
-0.66126853 0.47133005 -0.37866598 11 0
-86.727257 61.816284 -3.0995383 63 15
-6.3740797 4.0889449 -2.1199408 12 1
-8.4194317 6.0010891 -2.0678608 24 2
-11.959765 7.6721387 -2.2106009 8 3
-15.516232 11.05945 -2.42536 13 4
-18.367369 11.782589 -2.3505664 14 5
-18.702 14.759352 -2.2239659 25 6
-28.635389 18.36948 -2.3789747 21 8
-22.072771 15.732732 -2.2127883 14 7
-31.880949 18.317553 -2.3564517 16 9
-33.985981 26.821253 -2.5213733 13 10
-59.17128 37.958126 -3.2746747 63 12
-45.737743 32.60033 -2.943584 49 11
-81.520256 46.838367 -3.8303926 63 13
-90.228592 71.207115 -4.0138612 63 14
-83.982239 53.874249 -2.3217547 63 16
-0.65381181 0.46929234 -0.37528506 11 0
-86.950569 62.411285 -3.114898 63 15
-6.3507795 4.1037865 -2.1167057 13 1
-8.3931131 6.0243998 -2.0662918 24 2
-12.043808 7.7825432 -2.2308929 8 3
-15.485922 11.115468 -2.4263704 10 4
-18.468489 11.934083 -2.3685584 14 5
-18.768328 14.912956 -2.2377214 20 6
-28.510643 18.423185 -2.3736732 21 8
-22.600222 16.221964 -2.2710452 12 7
-31.001301 17.949135 -2.29582 16 9
-59.045086 38.154121 -3.2746747 63 12
-45.564487 32.705231 -2.9393969 49 11
-81.696548 47.300671 -3.8460243 63 13
-90.617935 72.003288 -4.0417805 63 14
-84.343872 54.50185 -2.336736 63 16
-0.65510726 0.47369611 -0.37697551 11 0
-87.078842 62.965126 -3.1273489 63 15
-6.3331871 4.1238303 -2.1156275 13 1
-8.3624954 6.0467682 -2.0639384 25 2
-12.109306 7.8849282 -2.2481103 8 3
-15.408438 11.141561 -2.4203095 10 4
-18.380056 11.968102 -2.3625612 21 5
-18.67573 14.946033 -2.2328885 23 6
-28.439466 18.518248 -2.3731151 21 8
-22.71468 16.42457 -2.2882946 10 7
-33.637383 26.919724 -2.5090477 13 10
-58.834515 38.309868 -3.2703936 63 12
-45.33675 32.782177 -2.9320698 49 11
-81.965843 47.839424 -3.8665407 63 13
-90.771774 72.643913 -4.0599284 63 14
-84.52507 55.03817 -2.3470647 63 16
-0.65638 0.47811437 -0.37866598 11 0
-87.3433 63.621811 -3.144803 63 15
-6.3155332 4.1437988 -2.1145492 12 1
-8.3571901 6.0874686 -2.0678608 25 2
-12.071795 7.9206438 -2.2462654 8 3
-15.440014 11.246675 -2.431421 12 4
-18.334843 12.030005 -2.3621328 21 5
-18.552124 14.95365 -2.2243376 20 6
-28.327946 18.586761 -2.3692088 21 8
-22.467083 16.365269 -2.2690926 6 7
-30.40732 17.889843 -2.2610271 16 9
-33.487247 26.991871 -2.5048618 27 10
-58.787285 38.571991 -3.2752326 63 12
-45.225269 32.942581 -2.9322793 49 11
-82.142822 48.327911 -3.8828235 63 13
-91.121445 73.447014 -4.0870104 63 14
-84.70356 55.576389 -2.3573937 63 16
-0.65170091 0.47837159 -0.37697551 11 0
-87.49955 64.227768 -3.1588829 63 15
-6.3003039 4.1669168 -2.1145492 12 1
-8.3348236 6.1180563 -2.0678608 25 2
-11.999828 7.9364886 -2.2382717 10 3
-15.341114 11.260921 -2.4223297 10 4
-18.167896 12.015946 -2.3462822 21 5
-18.413721 14.953752 -2.2142997 23 6
-28.229683 18.670647 -2.3666975 21 8
-22.210909 16.303595 -2.2492397 2 7
-30.369017 18.01746 -2.2630739 16 9
-26.968382 21.900978 -2.0232382 7 10
-51.86348 34.301651 -2.8964694 63 12
-45.210499 33.186111 -2.9391875 49 11
-82.22982 48.785664 -3.8953614 63 13
-84.892891 56.146755 -2.3683739 63 16
-0.65294194 0.48279911 -0.37866598 11 0
-87.676659 64.829979 -3.1734283 63 15
-6.2857194 4.1888857 -2.1145492 12 1
-8.3071079 6.1424518 -2.0662918 24 2
-12.050988 8.0309362 -2.2530296 8 3
-15.23152 11.262508 -2.4112182 12 4
-18.162245 12.103558 -2.3509946 14 5
-18.333662 14.995249 -2.2109537 25 6
-28.12117 18.740314 -2.3630705 21 8
-21.849329 16.155857 -2.2183211 4 7
-30.275103 18.104929 -2.2607715 16 9
-55.228016 36.804668 -3.0915279 63 12
-44.940205 33.22974 -2.9291391 49 11
-82.443192 49.302166 -3.9135985 63 13
-85.089043 56.704449 -2.379354 63 16
-0.65142202 0.48484787 -0.37866598 11 0
-88.033867 65.522858 -3.1937914 63 15
-6.2661319 4.204319 -2.1123927 12 1
-8.2877712 6.1685171 -2.0662918 25 2
-12.019135 8.0643482 -2.2517996 8 3
-15.106938 11.243965 -2.3970761 12 4
-18.193485 12.207086 -2.3599908 21 5
-18.412539 15.156548 -2.2261965 20 6
-28.01577 18.79744 -2.359164 21 8
-21.820856 16.241077 -2.2205994 6 7
-30.197556 18.187588 -2.2592363 16 9
-26.736216 22.008303 -2.0167267 14 10
-56.406139 37.846218 -3.1641164 63 12
-45.52774 33.88591 -2.9743574 49 11
-82.613152 49.756809 -3.9290671 63 13
-91.826363 75.588196 -4.1533194 63 14
-85.24588 57.196503 -2.3887525 63 16
-0.64665574 0.48516992 -0.37697551 11 0
-88.117439 66.11235 -3.2060096 63 15
-6.2467518 4.2261891 -2.1113143 11 1
-8.270299 6.2050023 -2.0678608 24 2
-11.974987 8.1015806 -2.2493401 10 3
-15.082696 11.316176 -2.4001064 22 4
-18.130009 12.26571 -2.3578489 17 5
-18.332747 15.209333 -2.2235942 17 6
-27.903727 18.878038 -2.3558156 21 8
-21.844435 16.389343 -2.2293868 8 7
-30.209379 18.353148 -2.2653763 16 9
-32.782707 27.197403 -2.4806759 13 10
-56.445736 38.187904 -3.1745396 63 12
-45.282261 33.974171 -2.966821 49 11
-82.845047 50.330975 -3.9492581 63 13
-85.532387 57.866241 -2.4029894 63 16
-0.64785039 0.48960999 -0.37866598 11 0
-88.431587 66.831772 -3.2259076 63 15
-6.2287793 4.2457991 -2.1102359 12 1
-8.2517176 6.2361979 -2.0686452 24 2
-11.920507 8.1255217 -2.2444208 10 3
-15.169728 11.464453 -2.4203095 12 4
-18.041079 12.297561 -2.3518515 10 5
-18.282602 15.275786 -2.2239659 23 6
-27.705778 18.885429 -2.3446548 21 8
-30.237045 18.514769 -2.2722836 16 9
-32.580322 27.222055 -2.4725366 13 10
-53.802879 36.674316 -3.0330849 63 12
-45.0168 34.02124 -2.957191 49 11
-82.934715 50.782642 -3.9619586 63 13
-87.438271 73.057892 -3.9789617 63 14
-85.709869 58.42347 -2.4136903 63 16
-0.64902204 0.49406412 -0.38035646 11 0
-88.576363 67.428223 -3.2397547 63 15
-6.2075701 4.2631536 -2.1080794 12 1
-8.2392635 6.27209 -2.0709987 23 2
-11.869266 8.1514177 -2.2401164 10 3
-15.012801 11.428405 -2.4016216 16 4
-18.388163 12.62838 -2.4028296 14 5
-18.23222 15.342072 -2.2243376 23 6
-27.517981 18.898438 -2.3343306 21 8
-21.67556 16.500389 -2.2238538 12 7
-30.18922 18.630676 -2.2735627 32 9
-32.616486 27.446165 -2.4825363 13 10
-53.638302 36.837006 -3.0310373 63 12
-43.852093 33.382141 -2.8883171 49 11
-83.12088 51.296398 -3.9793813 63 13
-92.529381 77.861748 -4.2229786 63 14
-85.930656 59.014324 -2.4256942 63 16
-0.64441651 0.49412093 -0.37866598 11 0
-88.968681 68.218742 -3.2627943 63 15
-6.1926503 4.2847972 -2.1080794 12 1
-8.2048683 6.2912679 -2.0678608 24 2
-11.843988 8.1950512 -2.2407315 7 3
-15.03894 11.531446 -2.4122281 13 4
-17.267988 11.948007 -2.2618899 22 5
-18.211971 15.433949 -2.2284272 20 6
-27.425594 18.976223 -2.3320985 21 8
-21.554554 16.527441 -2.2173448 14 7
-30.191792 18.778118 -2.2786794 32 9
-32.736771 27.743158 -2.4990478 13 10
-52.431641 36.278316 -2.9699886 63 12
-43.846241 33.620094 -2.8956442 49 11
-88.466415 55.022667 -4.2444673 63 13
-85.974045 59.486862 -2.4327662 63 16
-0.6426878 0.49636737 -0.37866598 11 0
-89.179352 68.875931 -3.2793179 63 15
-6.1713362 4.3019824 -2.1059227 12 1
-8.1828575 6.31987 -2.0678608 24 2
-12.129823 8.4555893 -2.3003776 9 3
-14.992316 11.579022 -2.4112182 16 4
-17.239227 12.017308 -2.2636034 19 5
-18.139812 15.481915 -2.2261965 20 6
-27.254436 18.998819 -2.3231695 21 8
-21.411537 16.536783 -2.2085574 10 7
-30.203854 18.932156 -2.2845635 16 9
-32.445335 27.691351 -2.4841642 13 10
-53.583046 37.352253 -3.042577 63 12
-44.591679 34.43951 -2.9527948 49 11
-83.180641 52.138676 -3.9995723 63 13
-86.353081 60.19595 -2.4494226 63 16
-0.64381266 0.50083351 -0.38035646 11 0
-89.427559 69.567314 -3.297354 63 15
-6.1531301 4.3212833 -2.1048446 11 1
-8.1297884 6.3243098 -2.0600162 22 2
-12.035544 8.452446 -2.2880793 7 3
-14.914224 11.602045 -2.4051571 12 4
-17.844835 12.532254 -2.3488526 21 5
-18.043377 15.508793 -2.2209916 20 6
-27.11285 19.04109 -2.316752 20 8
-21.293896 16.564907 -2.2023737 12 7
-30.414324 19.212275 -2.3055415 16 9
-52.157482 36.629692 -2.9688718 63 12
-43.433903 33.788017 -2.8839209 49 11
-83.379967 52.66988 -4.0179715 63 13
-86.489326 60.740612 -2.4592862 63 16
-0.64223611 0.50285363 -0.38035646 11 0
-89.819305 70.326111 -3.3199282 63 15
-6.1363792 4.3383689 -2.1037662 11 1
-8.0388498 6.2942042 -2.0419734 24 2
-11.705561 8.2757339 -2.2302778 5 3
-14.862082 11.636612 -2.402632 16 4
-17.763161 12.558407 -2.3432837 21 5
-17.93432 15.513291 -2.2135561 20 6
-26.850887 18.983353 -2.2994523 20 8
-21.169556 16.575195 -2.1948881 12 7
-30.22583 19.226318 -2.29582 16 9
-31.838154 27.540188 -2.4516065 13 10
-52.09761 36.832577 -2.9720359 63 12
-43.321255 33.91938 -2.8835022 49 11
-86.696442 61.293663 -2.4706385 63 16
-0.64030051 0.50531596 -0.38035646 11 0
-89.99115 71.019722 -3.3363352 63 15
-6.1259489 4.3663702 -2.1059227 12 1
-7.9961481 6.3104448 -2.0372665 26 2
-12.050269 8.5890265 -2.3022223 9 3
-14.783028 11.666553 -2.3970761 15 4
-17.66947 12.594204 -2.3372862 21 5
-16.913944 14.744577 -2.0945878 13 6
-26.712816 19.039997 -2.2938719 20 8
-21.011868 16.582264 -2.1851244 17 7
-30.420578 19.514668 -2.3162866 16 9
-29.573954 25.780827 -2.2848637 8 10
-52.183559 37.194683 -2.9850645 63 12
-71.454872 45.837986 -3.4586537 63 13
-86.844704 61.899986 -2.4816186 63 16
-0.63862133 0.50743651 -0.38035646 11 0
-90.124535 71.611259 -3.3500659 63 15
-6.1051774 4.3821688 -2.1037662 12 1
-7.9843907 6.3442469 -2.0396199 26 2
-12.012088 8.6220264 -2.3003776 9 3
-14.762898 11.730322 -2.4001064 21 4
-17.617914 12.645772 -2.3360009 24 5
-16.99966 14.918801 -2.1113176 13 6
-26.490686 19.014462 -2.2801995 20 8
-20.916185 16.619608 -2.1808934 17 7
-30.097534 19.448618 -2.2965875 16 9
-33.855267 29.711182 -2.6232328 13 10
-52.180035 37.453739 -2.9919512 63 12
-43.802986 34.805031 -2.9320698 49 11
-84.353844 54.508305 -4.0917335 63 13
-87.071037 62.497772 -2.493995 63 16
-0.63684624 0.50966245 -0.38035646 11 0
-90.520226 72.442543 -3.3741529 63 15
-6.083602 4.3989377 -2.1016097 12 1
-7.9836349 6.3892331 -2.0451112 26 2
-11.988326 8.6685324 -2.3016074 9 3
-14.021707 11.221449 -2.28596 8 4
-16.787317 12.138592 -2.2314742 9 5
-16.863926 14.904197 -2.100908 8 6
-26.31422 19.027315 -2.2707129 20 8
-20.823811 16.665113 -2.1773136 14 7
-29.661499 19.313951 -2.2684462 32 9
-29.272118 25.870453 -2.2750962 8 10
-51.909763 37.534969 -2.983948 63 12
-44.283154 35.439419 -2.9724731 49 11
-84.561623 55.061924 -4.1111102 63 13
-87.244461 63.084824 -2.505254 63 16
-0.63506311 0.51188254 -0.38035646 11 0
-90.609207 73.034111 -3.3869529 63 15
-6.0650945 4.4178805 -2.1005313 12 1
-7.9551735 6.4121408 -2.0435421 26 2
-11.951601 8.7056761 -2.3003776 12 3
-14.031878 11.310172 -2.2940412 8 4
-16.805916 12.241611 -2.2396135 9 5
-17.638844 15.699078 -2.2042618 17 6
-26.121843 19.027433 -2.2598307 40 8
-20.697218 16.682663 -2.1701534 14 7
-29.400316 19.290369 -2.253608 16 9
-49.950401 36.384415 -2.8786016 63 12
-44.022324 35.483494 -2.9632621 49 11
-71.473633 46.895844 -3.4827526 63 13
-87.437439 63.690376 -2.5171647 63 16
-0.63336229 0.51398557 -0.38035646 11 0
-90.965721 73.820427 -3.4094107 63 15
-6.0473061 4.4356894 -2.099453 12 1
-7.9247313 6.4310708 -2.041189 26 2
-11.878051 8.7125311 -2.2917688 11 3
-14.012784 11.371642 -2.2970717 8 4
-17.528454 12.857093 -2.3415699 14 5
-16.426901 14.718322 -2.058897 13 6
-26.061829 19.11631 -2.2601097 40 8
-20.846098 16.917007 -2.1916335 12 7
-29.016485 19.176468 -2.2290483 31 9
-29.169699 26.135727 -2.2809103 16 10
-52.410198 38.442799 -3.0276871 63 12
-43.842388 35.578934 -2.9590752 49 11
-84.648338 55.942547 -4.1337433 63 13
-87.651398 64.29216 -2.5294478 63 16
-0.62875718 0.51389921 -0.37866598 11 0
-91.252335 74.582848 -3.4298904 63 15
-6.0317845 4.4567728 -2.099453 12 1
-7.917417 6.4711061 -2.0451112 26 2
-11.895246 8.789175 -2.3009925 11 3
-13.963783 11.412954 -2.2955563 9 4
-17.160406 12.679504 -2.2983029 23 5
-17.371902 15.674704 -2.1841857 17 6
-25.953217 19.176346 -2.2564826 20 8
-20.811609 17.009857 -2.1942372 12 7
-28.946045 19.275433 -2.2287927 31 9
-29.010092 26.175867 -2.2755616 8 10
-52.307819 38.649269 -3.0295484 63 12
-43.609665 35.643288 -2.9517481 49 11
-76.412125 50.883526 -3.7401853 63 13
-87.748047 64.835396 -2.538753 63 16
-0.62416071 0.51378679 -0.37697551 8 0
-91.439064 75.269371 -3.446763 63 15
-6.0161915 4.4777994 -2.099453 14 1
-7.909924 6.5111666 -2.0490336 26 2
-11.88986 8.8495207 -2.3059118 9 3
-14.769404 12.157645 -2.4349566 15 4
-16.943769 12.611102 -2.2751698 20 5
-17.272871 15.695069 -2.1786091 20 6
-25.873318 19.257288 -2.2553663 40 8
-20.918327 17.219219 -2.211812 8 7
-28.895159 19.387468 -2.2300715 31 9
-29.024942 26.37364 -2.2839334 8 10
-51.675781 38.461838 -3.0006993 63 12
-43.451065 35.767365 -2.9494455 49 11
-74.461784 49.960808 -3.6532345 63 13
-94.527267 85.892616 -4.4601555 63 14
-88.04731 65.532852 -2.5540137 63 16
-0.62227345 0.51607108 -0.37697551 8 0
-91.719627 76.065994 -3.4678245 63 15
-5.9935756 4.4951973 -2.0972962 13 1
-7.8890252 6.5426183 -2.049818 26 2
-11.892127 8.9191265 -2.3126757 9 3
-14.623954 12.128108 -2.4182889 16 4
-16.951519 12.713684 -2.2824523 20 5
-17.203478 15.747517 -2.1771221 23 6
-25.777025 19.332836 -2.2531343 40 8
-20.16461 16.723148 -2.1385839 10 7
-28.80076 19.477592 -2.2282808 31 9
-35.122543 32.150059 -2.772999 14 10
-50.370922 37.77832 -2.9329498 63 12
-42.649395 35.370491 -2.9038084 49 11
-74.059669 50.085621 -3.6424878 63 13
-94.801567 86.778343 -4.4880753 63 14
-88.238411 66.179039 -2.5665758 63 16
-0.62612414 0.52277863 -0.38035646 8 0
-92.062294 76.866867 -3.4903989 63 15
-5.9724884 4.5104055 -2.0951397 13 1
-7.864275 6.5662293 -2.0490336 27 2
-11.808865 8.9180193 -2.3022223 11 3
-14.559288 12.15619 -2.4142485 10 4
-16.883877 12.750653 -2.2790253 27 5
-17.174591 15.826069 -2.1800961 20 6
-25.384796 19.170523 -2.2243946 20 8
-20.831266 17.392941 -2.2153919 12 7
-28.627138 19.498835 -2.2198384 31 9
-31.547636 29.070564 -2.4983504 13 10
-47.18116 35.631069 -2.7540841 63 12
-42.421482 35.419563 -2.8962722 49 11
-73.652031 50.166695 -3.6306012 63 13
-88.545006 66.868927 -2.5819294 63 16
-0.61588115 0.51806915 -0.37528506 5 0
-92.315392 77.654198 -3.510762 63 15
-5.9559169 4.5322657 -2.0951397 12 1
-7.8281479 6.5849099 -2.0458956 26 2
-11.716338 8.9157658 -2.290539 9 3
-14.46605 12.168604 -2.4061675 12 4
-16.83703 12.81245 -2.2790253 20 5
-17.081444 15.856397 -2.1756349 20 6
-25.14924 19.137783 -2.2098851 19 8
-19.702618 16.573521 -2.1018071 8 7
-28.657499 19.673664 -2.2277691 15 9
-47.25375 35.958618 -2.7659962 63 12
-42.288319 35.572239 -2.8960629 49 11
-74.94381 51.449684 -3.7035487 63 13
-60.752563 56.395508 -2.8947039 63 14
-88.935783 67.677338 -2.6005399 63 16
-0.6085369 0.51552916 -0.3719041 5 0
-92.400711 78.278343 -3.5243764 63 15
-5.9339461 4.5483418 -2.0929832 12 1
-7.8081088 6.6147308 -2.0466802 26 2
-11.747884 9.0046968 -2.3028371 13 3
-16.820612 12.89292 -2.282881 20 5
-16.927073 15.823455 -2.1629946 20 6
-24.961939 19.133209 -2.1992822 39 8
-20.639351 17.484869 -2.2082319 12 7
-28.644463 19.812181 -2.2321184 15 9
-28.701717 26.830412 -2.2881196 8 10
-49.128998 37.657146 -2.8834407 63 12
-42.105984 35.670578 -2.8920853 49 11
-71.276215 49.298786 -3.5307872 63 13
-92.719536 86.67437 -4.4322362 63 14
-89.136986 68.323082 -2.6133811 63 16
-0.61500722 0.52470911 -0.37697551 2 0
-92.528404 78.94297 -3.5397363 63 15
-5.9149837 4.5666738 -2.0919049 12 1
-7.7939224 6.6495838 -2.0490336 26 2
-11.706994 9.0384054 -2.3009925 12 3
-13.837392 11.805724 -2.3152542 19 4
-16.426081 12.681784 -2.2353299 22 5
-16.851435 15.863337 -2.160392 20 6
-24.885523 19.212912 -2.1984451 19 8
-20.678276 17.642199 -2.218972 12 7
-28.424479 19.80707 -2.2203503 31 9
-31.646326 29.790718 -2.5311406 13 10
-49.566547 38.267941 -2.9169431 63 12
-41.920433 35.765488 -2.8878984 49 11
-75.274689 52.453766 -3.7379057 63 13
-64.935989 61.128418 -3.1142917 63 14
-89.328438 68.966171 -2.6260364 63 16
-0.60226357 0.51729733 -0.37021363 2 0
-92.569405 79.509888 -3.5513725 63 15
-5.8967667 4.5839005 -2.0908265 12 1
-7.7926564 6.6932831 -2.0545249 27 2
-11.549016 8.9777231 -2.2757812 8 3
-13.777095 11.833447 -2.3117187 12 4
-16.377655 12.731305 -2.234473 26 5
-16.795847 15.916393 -2.1600204 20 6
-24.931936 19.381046 -2.2082109 39 8
-20.580341 17.676905 -2.2147412 12 7
-28.312891 19.86912 -2.2167685 31 9
-47.68224 37.066181 -2.8132718 63 12
-41.768265 35.875675 -2.8855956 49 11
-62.740639 44.029457 -3.1227374 63 13
-89.493889 69.56881 -2.6376679 63 16
-0.6059379 0.5241397 -0.37359458 2 0
-93.047302 80.486443 -3.5804632 63 15
-5.8776975 4.6020794 -2.0897481 12 1
-7.7811117 6.7307057 -2.0576627 25 2
-11.701219 9.1617403 -2.3120608 9 3
-13.597658 11.762052 -2.2884853 11 4
-15.478257 12.119061 -2.117523 9 5
-16.691206 15.928177 -2.1537001 23 6
-24.817007 19.431049 -2.2040255 39 8
-20.512486 17.743416 -2.2140903 12 7
-28.194473 19.933256 -2.2129312 31 9
-32.991268 31.483091 -2.6557906 14 10
-48.527847 37.996002 -2.8709705 63 12
-41.543091 35.935009 -2.8786871 49 11
-75.447853 53.340996 -3.764447 63 13
-66.785767 63.732693 -3.2237363 63 14
-89.880241 70.373817 -2.6562784 63 16
-0.59854645 0.52159375 -0.37021363 2 0
-93.146545 81.171074 -3.5957065 63 15
-5.8577652 4.6212068 -2.08867 12 1
-7.738646 6.7437196 -2.0529559 26 2
-11.642733 9.1849833 -2.3071415 9 3
-14.209591 12.382722 -2.3990963 13 4
-15.408754 12.156008 -2.1140959 13 5
-16.61261 15.969929 -2.1510978 23 6
-24.729954 19.509527 -2.2026305 39 8
-20.462337 17.831577 -2.2157173 12 7
-27.331226 19.473595 -2.1507645 15 9
-31.280806 30.070663 -2.5269544 13 10
-37.628334 29.685095 -2.2325635 50 12
-41.311714 36.000435 -2.8717787 49 11
-73.139343 52.112038 -3.6587708 63 13
-66.450836 63.880096 -3.2188504 63 14
-90.01413 71.01239 -2.6679101 63 16
-0.61325848 0.53781313 -0.38035646 2 0
-93.69973 82.172432 -3.627008 63 15
-5.8432193 4.639586 -2.08867 12 1
-7.717423 6.7679963 -2.0529559 26 2
-10.459249 8.3047695 -2.0777802 10 3
-14.12289 12.385439 -2.3910153 12 4
-16.559498 16.019268 -2.1507258 23 6
-24.618544 19.547419 -2.1981659 39 8
-20.349272 17.845827 -2.2095339 12 7
-27.240721 19.538416 -2.1484621 15 9
-32.695843 31.629189 -2.6492791 14 10
-47.235451 37.505512 -2.8095491 63 12
-41.102318 36.045753 -2.8650799 48 11
-73.37149 52.625721 -3.6786358 63 13
-61.012024 59.021595 -2.9643633 63 14
-90.416962 71.792145 -2.6865206 63 16
-0.65746909 0.58086163 -0.40909451 2 0
-5.8261752 4.6609712 -2.08867 12 1
-7.7043233 6.8066258 -2.0560937 26 2
-10.46269 8.3702078 -2.0845442 5 3
-14.059559 12.421357 -2.3879848 21 4
-15.456088 12.364952 -2.1320882 11 5
-16.477856 16.057619 -2.1477518 23 6
-24.512461 19.610098 -2.1950967 39 8
-20.226959 17.87014 -2.2033501 12 7
-27.773901 20.075413 -2.1963019 31 9
-47.328556 37.863094 -2.8233225 63 12
-40.895084 36.130043 -2.8598461 48 11
-73.106857 52.842785 -3.6750538 63 13
-59.581387 58.061878 -2.9051738 63 14
-90.662216 72.530251 -2.7016883 63 16
-0.66627109 0.59279197 -0.41585639 2 0
-5.8008714 4.6740298 -2.0854352 12 1
-7.6775866 6.8308702 -2.0553093 27 2
-11.513683 9.2771053 -2.3003776 11 3
-14.042795 12.494097 -2.3925302 10 4
-16.261358 13.102526 -2.2494667 13 5
-16.398964 16.092722 -2.1447773 23 6
-24.406574 19.665503 -2.1917484 39 8
-20.11978 17.900887 -2.1984682 14 7
-27.622982 20.113497 -2.1899064 31 9
-27.942673 27.42086 -2.2799802 8 10
-47.283218 38.09827 -2.8285339 63 12
-40.697098 36.208855 -2.8548222 48 11
-72.921959 53.09766 -3.6750538 63 13
-64.477066 63.272991 -3.1546354 63 14
-90.757233 73.127289 -2.71211 63 16
-0.66689777 0.59753323 -0.41754687 2 0
-5.7845206 4.6942501 -2.0854352 13 1
-7.6420102 6.8471584 -2.0521715 26 2
-11.171258 9.065691 -2.2382717 8 3
-13.951811 12.500671 -2.3844492 10 4
-16.224787 13.166727 -2.2507517 16 5
-16.322857 16.130272 -2.142175 23 6
-24.303698 19.722918 -2.1886792 39 8
-19.965124 17.888535 -2.188379 14 7
-27.410982 20.105915 -2.1786499 31 9
-28.664801 28.326599 -2.346956 13 10
-47.053761 38.185032 -2.8227642 63 12
-40.986958 36.723869 -2.88413 49 11
-72.691055 53.318783 -3.6727741 63 13
-57.786995 57.105198 -2.83705 63 14
-90.964081 73.819107 -2.7259748 63 16
-0.67029649 0.60459769 -0.42092782 2 0
-5.7689214 4.7134075 -2.0854352 12 1
-7.6367373 6.888226 -2.0568783 26 2
-11.098282 9.0676775 -2.2296629 11 3
-13.916174 12.552186 -2.3854592 12 4
-16.10404 13.157554 -2.240042 19 5
-16.314455 16.229256 -2.1481235 20 6
-24.191807 19.765539 -2.1844938 39 8
-19.834644 17.89056 -2.180568 12 7
-26.650595 19.684435 -2.1233904 30 9
-46.877361 38.300419 -2.8197861 63 12
-40.345871 36.391388 -2.8474948 48 11
-62.946487 46.492996 -3.1881948 63 13
-64.146896 63.811909 -3.1596608 63 14
-91.260704 74.563133 -2.742259 63 16
-5.7464867 4.7286196 -2.0832784 12 1
-7.6242619 6.9253879 -2.0600162 26 2
-11.045201 9.0887804 -2.2253585 12 3
-13.722483 12.464619 -2.3597007 10 4
-16.070301 13.223792 -2.2417557 13 5
-16.291473 16.319925 -2.1525848 20 6
-24.134995 19.859997 -2.1856098 39 8
-19.713057 17.906071 -2.1740589 12 7
-26.479246 19.70109 -2.1152041 30 9
-31.67337 31.728685 -2.6109073 13 10
-46.66935 38.402874 -2.8153191 63 12
-40.357578 36.658222 -2.8573341 48 11
-74.34977 55.317719 -3.7755191 63 13
-56.549698 56.648457 -2.7951705 63 14
-91.540276 75.325874 -2.7585433 63 16
-0.59106672 0.54085433 -0.37359458 2 0
-5.7291155 4.749651 -2.0832784 12 1
-7.6132936 6.9665275 -2.0639384 26 2
-10.993555 9.114069 -2.2216692 12 3
-15.752295 13.059242 -2.2040575 13 5
-16.24556 16.393675 -2.1544435 23 6
-24.138834 20.011997 -2.1925855 39 8
-19.609055 17.943222 -2.1698279 12 7
-26.349361 19.754911 -2.1105988 30 9
-31.514694 31.802021 -2.607419 13 10
-46.506741 38.555828 -2.8140163 63 12
-40.33197 36.905682 -2.8650799 48 11
-65.560516 49.152695 -3.3383229 63 13
-56.710293 57.227329 -2.813458 63 14
-91.725342 76.043739 -2.7725012 63 16
-0.5946027 0.54772365 -0.37697551 2 0
-5.7074184 4.7636871 -2.0811219 12 1
-7.5901499 6.9917355 -2.0639384 26 2
-10.929893 9.1226158 -2.214905 10 3
-13.509629 12.444517 -2.3379824 22 4
-15.815765 13.200601 -2.2190511 16 5
-16.174343 16.430429 -2.1522131 23 6
-24.228573 20.222336 -2.2068157 19 8
-19.555309 18.01355 -2.1704788 12 7
-26.248661 19.815727 -2.1077847 30 9
-26.414204 26.832415 -2.1927717 7 10
-44.992081 37.552563 -2.729888 63 12
-40.462032 37.271969 -2.8830833 49 11
-65.454567 49.413181 -3.3412538 63 13
-56.853928 57.754082 -2.83007 63 14
-92.163429 76.924042 -2.793438 63 16
-0.59268725 0.54979575 -0.37697551 2 0
-5.6878076 4.7811007 -2.0800436 13 1
-7.5570722 7.0101833 -2.0615849 26 2
-10.952443 9.2064877 -2.2259734 7 3
-13.512656 12.534775 -2.3460639 19 4
-15.806124 13.286432 -2.2241917 13 5
-16.100191 16.469696 -2.1499825 23 6
-23.69356 19.916512 -2.1644039 19 8
-19.35202 17.951555 -2.1548569 14 7
-26.910162 20.462955 -2.166626 31 9
-27.947786 28.589197 -2.3283515 13 10
-45.845604 38.537247 -2.78982 63 12
-40.229191 37.31789 -2.8757563 49 11
-64.292297 48.888977 -3.2906141 63 13
-56.951 58.258045 -2.8450069 63 14
-92.277 77.566902 -2.8050697 63 16
-0.59606278 0.55681068 -0.38035646 2 0
-5.6622643 4.7934594 -2.0768087 11 1
-7.5554867 7.057941 -2.0678608 26 2
-10.905157 9.2318954 -2.222899 8 3
-13.463019 12.576449 -2.3450534 10 4
-15.902311 13.462297 -2.2443259 9 5
-16.012089 16.494362 -2.1458929 23 6
-23.983263 20.303326 -2.197329 59 8
-19.373724 18.097921 -2.164295 12 7
-26.689619 20.442682 -2.1546016 31 9
-27.953514 28.795458 -2.3371887 13 10
-45.527828 38.542145 -2.7786527 63 12
-40.104519 37.463547 -2.8761749 49 11
-60.453362 46.303726 -3.1023836 63 13
-56.042828 57.730804 -2.8096888 63 14
-92.506226 78.312286 -2.8203301 63 16
-0.58873785 0.55402279 -0.37697551 5 0
-5.6475878 4.81668 -2.0778868 12 1
-7.5467057 7.1017132 -2.0725677 26 2
-10.86824 9.2692375 -2.2222838 8 3
-13.422613 12.631147 -2.3460639 13 4
-15.926653 16.52713 -2.1425469 25 6
-23.884398 20.370378 -2.1950967 39 8
-19.353716 18.212523 -2.1695025 12 7
-26.459669 20.420862 -2.142066 30 9
-26.728336 27.736063 -2.2432363 7 10
-45.520023 38.822838 -2.7868421 63 12
-39.894215 37.541847 -2.8709414 49 11
-60.333866 46.564056 -3.1049888 63 13
-55.90575 58.013546 -2.813458 63 14
-92.553261 78.936256 -2.8305659 63 16
-0.5894317 0.55856818 -0.37866598 5 0
-5.6307397 4.8363643 -2.0778868 12 1
-7.5361052 7.1415033 -2.0764899 26 2
-10.76086 9.2427359 -2.2069113 11 3
-12.871528 12.197556 -2.2571709 20 4
-16.179668 13.897067 -2.297446 16 5
-15.844081 16.556726 -2.1392007 25 6
-23.801037 20.443226 -2.1939807 39 8
-18.673645 17.695866 -2.1001799 12 7
-26.394526 20.517998 -2.1425776 15 9
-27.561764 28.801455 -2.3216076 8 10
-45.123558 38.757603 -2.7708354 63 12
-39.8876 37.799026 -2.8799434 49 11
-60.243534 46.830799 -3.1087339 63 13
-54.48127 56.931767 -2.7517557 44 14
-92.959702 79.8451 -2.8515027 63 16
-0.590101 0.56312501 -0.38035646 11 0
-5.6079974 4.8509502 -2.0757303 12 1
-7.5253191 7.1813054 -2.0804124 27 2
-10.818211 9.3578148 -2.2253585 8 3
-13.00111 12.406775 -2.2874753 8 4
-16.170162 13.987285 -2.3030152 20 5
-15.753269 16.577286 -2.1347394 25 6
-23.702374 20.502691 -2.1914694 39 8
-19.006897 18.138012 -2.1447675 12 7
-25.508703 19.972635 -2.0763178 15 9
-29.755215 31.311642 -2.5155592 13 10
-45.02124 38.943634 -2.7728827 63 12
-39.746746 37.929756 -2.8793151 49 11
-60.740536 47.558224 -3.1429279 63 13
-54.337288 57.179546 -2.7545474 44 14
-92.982872 80.430725 -2.8608079 63 16
-0.59607345 0.57261324 -0.38542789 8 0
-5.5860701 4.8644614 -2.0735738 12 1
-7.5071206 7.2116551 -2.0819812 26 2
-10.840771 9.4403601 -2.2364268 10 3
-13.412019 12.884149 -2.3672767 13 4
-15.859757 13.810994 -2.265317 16 5
-15.692742 16.623644 -2.133996 23 6
-23.736565 20.670275 -2.2009563 19 8
-19.053022 18.303135 -2.1568096 16 7
-26.119461 20.590921 -2.1315773 30 9
-29.519642 31.270761 -2.5043964 13 10
-44.885818 39.087471 -2.7725105 63 12
-39.776302 38.210785 -2.8906198 49 11
-61.244751 48.281467 -3.177285 63 13
-55.09959 58.36813 -2.8029881 63 14
-93.318787 81.263863 -2.8794186 63 16
-0.59136569 0.5722729 -0.38373742 8 0
-5.565309 4.8823614 -2.0724955 12 1
-7.483458 7.2418475 -2.0827658 28 2
-10.83284 9.5034866 -2.241961 8 3
-13.310531 12.880789 -2.3576803 22 4
-16.149851 14.168019 -2.3141532 13 5
-15.615372 16.663609 -2.1317654 23 6
-23.780632 20.862389 -2.2121174 39 8
-18.633429 18.03183 -2.1167781 12 7
-26.096952 20.728714 -2.135926 30 9
-29.423954 31.399141 -2.5060246 13 10
-43.847176 38.466465 -2.7170453 63 12
-39.00161 37.742409 -2.8443549 48 11
-61.737118 49.037567 -3.2121305 63 13
-52.583725 56.113598 -2.6854465 44 14
-0.58686787 0.57170117 -0.38204694 8 0
-5.554862 4.9058895 -2.0746522 12 1
-7.4678302 7.2748356 -2.0851192 28 2
-10.798303 9.5367413 -2.2413461 8 3
-13.290481 12.947008 -2.3617208 13 4
-16.007389 14.137251 -2.3004448 20 5
-15.549173 16.70364 -2.1302783 23 6
-23.543829 20.793213 -2.1964917 19 8
-18.516413 18.037886 -2.1102691 16 7
-26.028069 20.815142 -2.135926 30 9
-43.710388 38.603718 -2.7164869 63 12
-38.856205 37.852028 -2.8428895 48 11
-56.601913 45.265625 -2.9527435 63 13
-52.702415 56.615368 -2.7010815 44 14
-0.58486873 0.57374626 -0.38204694 5 0
-5.5290685 4.9175701 -2.0714171 12 1
-7.4507904 7.3090987 -2.0874724 27 2
-10.761994 9.5717497 -2.2407315 7 3
-13.321685 13.068347 -2.3753579 12 4
-16.017376 14.245903 -2.3090127 16 5
-15.477252 16.743193 -2.1284194 23 6
-23.181889 20.618042 -2.1694264 19 8
-18.439108 18.088451 -2.1086419 14 7
-25.656811 20.665487 -2.1113665 15 9
-26.054388 28.185471 -2.2353292 7 10
-43.575367 38.756065 -2.7164869 63 12
-37.3494 36.639126 -2.7419856 48 11
-61.258724 49.341339 -3.2046404 63 13
-52.385067 56.66983 -2.6949391 44 14
-0.57522446 0.56804085 -0.37697551 2 0
-5.5069919 4.9307399 -2.0692606 12 1
-7.4265118 7.3337669 -2.0874724 28 2
-10.747862 9.6232052 -2.2444208 8 3
-12.719251 12.560409 -2.2753534 11 4
-15.9019 14.237925 -2.2991595 16 5
-15.319283 16.682953 -2.1142919 19 6
-23.039072 20.628263 -2.1624508 58 8
-18.393206 18.163506 -2.1102691 14 7
-25.513729 20.690113 -2.1052265 30 9
-26.579279 28.945274 -2.2885847 16 10
-43.428753 38.884365 -2.7153702 63 12
-37.375492 36.908733 -2.7528715 48 11
-52.992672 42.9739 -2.7796562 63 13
-52.437496 57.105305 -2.7073634 44 14
-3.0533118 3.0373662 -2.0082822 1 0
-5.4860215 4.9483109 -2.0681822 12 1
-7.4051428 7.3664703 -2.0890415 29 2
-10.683168 9.6360607 -2.2382717 8 3
-13.165424 13.096668 -2.3637414 10 4
-15.778733 14.232185 -2.2888784 23 5
-15.086322 16.550611 -2.0904982 16 6
-22.859604 20.619026 -2.1526847 19 8
-18.247368 18.152073 -2.1011562 12 7
-25.499548 20.834002 -2.1103432 30 9
-25.940372 28.458164 -2.2425385 7 10
-43.29187 39.04863 -2.7157426 63 12
-37.341908 37.146893 -2.7604079 48 11
-52.887417 43.210827 -2.7824244 63 13
-52.386726 57.471416 -2.7155998 44 14
-3.0401294 3.0454397 -2.0065916 3 0
-5.4687152 4.9674306 -2.0681822 12 1
-7.3655286 7.3783941 -2.0851192 26 2
-10.64069 9.6653204 -2.2364268 10 3
-13.119627 13.142544 -2.3637414 13 4
-15.714237 14.273806 -2.2867365 20 5
-15.333144 16.939783 -2.1328807 23 6
-22.929266 20.827477 -2.1660781 19 8
-18.321905 18.35391 -2.1171036 10 7
-25.408173 20.907665 -2.108808 15 9
-26.478661 29.253149 -2.2978868 8 10
-43.205582 39.245182 -2.7189066 63 12
-37.288208 37.35334 -2.7660601 48 11
-53.776299 44.250992 -2.8372977 63 13
-52.172386 57.639118 -2.7149019 44 14
-3.032033 3.0586085 -2.0082822 4 0
-5.4456577 4.9812903 -2.0660257 11 1
-7.3314443 7.3957038 -2.0827658 25 2
-10.633134 9.7264147 -2.241961 8 3
-13.070879 13.185445 -2.3632362 10 4
-15.373801 14.062831 -2.2443259 13 5
-15.233984 16.948771 -2.1273038 23 6
-22.888811 20.937014 -2.1691473 19 8
-18.384031 18.545166 -2.1317494 12 7
-25.611656 21.225475 -2.1318328 15 9
-42.997566 39.331036 -2.7144396 63 12
-37.911266 38.243557 -2.8221645 48 11
-53.821537 44.60421 -2.8478818 63 13
-52.091118 57.954662 -2.7211835 44 14
-3.0086226 3.0562556 -1.9998298 3 0
-5.4282379 5.0002675 -2.0660257 12 1
-7.3248472 7.440815 -2.0882571 26 2
-10.593307 9.7581148 -2.2407315 8 3
-12.918998 13.123532 -2.3440435 13 4
-15.684411 14.447829 -2.2970178 16 5
-15.158821 16.984015 -2.1250732 23 6
-22.800919 21.00326 -2.1677523 39 8
-18.377922 18.668882 -2.1385839 14 7
-25.531282 21.309626 -2.1313212 30 9
-25.489386 28.55843 -2.2292829 7 10
-42.921738 39.537724 -2.7183483 63 12
-38.323994 38.930744 -2.8629863 48 11
-56.163151 46.876442 -2.9804246 63 13
-51.489227 57.688774 -2.7002437 44 14
-3.0010054 3.0688074 -2.0015202 6 0
-5.4031529 5.0103836 -2.0627906 12 1
-7.3165855 7.4818897 -2.0929639 26 2
-10.523212 9.7582521 -2.2327375 8 3
-12.739467 13.02729 -2.3192947 22 4
-15.662659 14.524098 -2.3008733 13 5
-15.062784 16.989489 -2.1194966 23 6
-22.985695 21.314804 -2.1920276 19 8
-18.310335 18.724024 -2.137933 14 7
-25.384075 21.329975 -2.1249256 30 9
-26.152193 29.497362 -2.2957938 16 10
-42.725933 39.620071 -2.7142537 63 12
-38.024315 38.883404 -2.8502164 48 11
-57.32618 48.170593 -3.0506039 63 13
-47.070351 53.091194 -2.4777246 42 14
-2.9872119 3.0771859 -1.9998298 4 0
-5.3847518 5.0301547 -2.0627906 12 1
-7.2945762 7.514286 -2.0945327 27 2
-10.646229 9.9451532 -2.2665575 8 3
-12.796658 13.182089 -2.3384876 16 4
-15.650002 14.619418 -2.3068707 16 5
-14.931997 16.966852 -2.1098304 22 6
-22.42337 20.946747 -2.1457093 19 8
-18.024982 18.567888 -2.1125474 12 7
-24.583654 20.8116 -2.0642936 30 9
-42.478226 39.680946 -2.7077391 63 12
-38.07074 39.217419 -2.8644519 48 11
-54.068325 45.772217 -2.8861463 63 13
-50.866013 57.797768 -2.6886573 44 14
-2.9764528 3.087594 -1.9998298 7 0
-5.3671613 5.0489197 -2.0627906 13 1
-7.2819142 7.553822 -2.0984552 26 2
-10.660391 10.028292 -2.2770109 8 3
-12.714767 13.189538 -2.3319216 15 4
-15.540944 14.619456 -2.2983029 20 5
-14.85696 17.000877 -2.1075997 24 6
-22.384995 21.057695 -2.1490574 38 8
-18.142679 18.820129 -2.1340275 16 7
-24.358982 20.767794 -2.0515022 29 9
-42.650867 40.121922 -2.7276545 63 12
-36.960533 38.340649 -2.7909722 48 11
-53.984272 46.025494 -2.8902171 63 13
-50.329884 57.592678 -2.6709285 44 14
-2.9611831 3.0922108 -1.9964489 8 0
-5.3447952 5.0613933 -2.0606341 14 1
-7.2459741 7.566597 -2.0953174 28 2
-12.703891 13.266018 -2.3379824 12 4
-15.394197 14.577937 -2.2837377 13 5
-14.839663 17.095163 -2.1131766 22 6
-22.2542 21.074196 -2.1431978 19 8
-18.077412 18.877308 -2.133702 14 7
-24.268774 20.830257 -2.0497112 29 9
-25.114147 28.931282 -2.2311432 7 10
-42.546597 40.290611 -2.7295158 63 12
-36.833191 38.463001 -2.7909722 48 11
-54.192245 46.514027 -2.9095941 63 13
-47.86924 55.144955 -2.5500364 43 14
-2.9478729 3.099901 -1.9947584 8 0
-5.327095 5.080019 -2.0606341 14 1
-7.2330317 7.6060548 -2.0992396 26 2
-10.574723 10.084257 -2.2733216 10 3
-12.695789 13.350538 -2.3450534 13 4
-15.112968 14.412014 -2.2494667 19 5
-14.800702 17.170994 -2.1161509 22 6
-22.067881 21.04435 -2.1323159 38 8
-17.934483 18.859402 -2.1245892 14 7
-24.201956 20.920063 -2.0502229 14 9
-42.46064 40.491272 -2.7330523 63 12
-37.384121 39.312099 -2.8430986 48 11
-54.244228 46.88847 -2.9211547 63 13
-47.475491 55.078564 -2.5392873 43 14
-2.9395232 3.1128082 -1.9964489 8 0
-5.306551 5.0959153 -2.0595558 14 1
-7.176815 7.5998883 -2.0906105 27 2
-10.530904 10.112895 -2.2714767 10 3
-12.600071 13.342845 -2.3359621 12 4
-15.183045 14.580377 -2.2674589 16 5
-14.719954 17.198347 -2.1131766 22 6
-21.936724 21.065977 -2.1267354 38 8
-17.748104 18.794355 -2.1102691 14 7
-23.963186 20.860268 -2.0361524 29 9
-24.833656 29.014889 -2.2241664 23 10
-42.408375 40.725037 -2.738822 63 12
-37.400253 39.605 -2.8548222 48 11
-54.197781 47.179878 -2.927505 63 13
-47.09058 55.019203 -2.5289571 42 14
-2.9261594 3.1204057 -1.9947584 8 0
-5.2831926 5.1090527 -2.0573993 15 1
-7.0590186 7.5276151 -2.0639384 33 2
-10.489857 10.144098 -2.270247 10 3
-11.636 12.408428 -2.1652477 9 4
-15.137775 14.638817 -2.2683156 23 5
-14.646935 17.234451 -2.1113176 19 6
-21.880264 21.159067 -2.1284094 38 8
-17.606031 18.774767 -2.1011562 14 7
-24.253424 21.262192 -2.0671077 30 9
-24.737396 29.107487 -2.2246315 15 10
-42.294682 40.9006 -2.7406831 63 12
-36.302696 38.712566 -2.7813423 48 11
-54.291225 47.59536 -2.9415083 63 13
-46.913773 55.201527 -2.5297949 42 14
-2.9201906 3.1359067 -1.9981393 7 0
-5.262567 5.1247754 -2.0563209 14 1
-7.1369472 7.6641579 -2.0945327 26 2
-10.434562 10.16135 -2.2659426 10 3
-11.560167 12.414124 -2.1591866 11 4
-15.174911 14.77758 -2.2815957 20 5
-14.535315 17.224598 -2.1038821 22 6
-21.817709 21.246449 -2.1295257 38 8
-17.464315 18.754416 -2.0920436 16 7
-24.226936 21.388996 -2.0712013 15 9
-24.560957 29.105158 -2.2178876 15 10
-42.163109 41.059139 -2.7414279 63 12
-36.385124 39.072914 -2.7980897 48 11
-54.481289 48.099358 -2.9608848 63 13
-46.432045 55.022774 -2.5141597 42 14
-2.906765 3.14342 -1.9964489 8 0
-5.2418962 5.1404171 -2.0552428 15 1
-7.1208024 7.7005444 -2.0976706 27 2
-10.367987 10.167271 -2.2591786 10 3
-12.392305 13.401228 -2.3233354 13 4
-15.046567 14.755278 -2.2700293 27 5
-14.587647 17.409552 -2.1202402 23 6
-21.757658 21.336447 -2.1309209 38 8
-17.509718 18.935274 -2.1053872 14 7
-24.104397 21.430996 -2.0671077 15 9
-24.482292 29.218264 -2.2199805 23 10
-41.965321 41.152908 -2.7378914 63 12
-36.904812 39.909424 -2.8487511 48 11
-54.348907 48.32111 -2.9628391 63 13
-46.152405 55.080345 -2.5094135 42 14
-2.8957756 3.1535466 -1.9964489 8 0
-5.2184401 5.1532693 -2.053086 15 1
-7.0885758 7.719574 -2.0961018 28 2
-10.281814 10.153409 -2.2481103 10 3
-12.323984 13.421019 -2.3192947 22 4
-14.828017 14.642837 -2.2447543 22 5
-14.172729 17.0348 -2.0685632 13 6
-21.631945 21.361794 -2.1258984 57 8
-17.446215 18.99921 -2.1057127 14 7
-23.972944 21.464411 -2.0622473 15 9
-24.334188 29.248285 -2.2157946 23 10
-41.784466 41.262638 -2.7354717 63 12
-36.532936 39.784962 -2.8307474 48 11
-54.287102 48.606487 -2.9687009 63 13
-45.883167 55.148907 -2.5052254 42 14
-2.8823071 3.1609569 -1.9947584 7 0
-5.1922259 5.1633058 -2.0498512 15 1
-7.0589428 7.7413731 -2.0953174 27 2
-10.204268 10.147432 -2.2388866 10 3
-12.196853 13.375995 -2.3041427 16 4
-14.836032 14.753397 -2.2537503 22 5
-14.001574 16.949066 -2.0522053 22 6
-21.605343 21.485004 -2.1306417 38 8
-17.320692 18.995186 -2.0985527 14 7
-24.544161 22.130699 -2.1180182 15 9
-24.201427 29.296108 -2.2130039 23 10
-41.592003 41.360344 -2.7323074 63 12
-36.450356 39.974232 -2.8351436 48 11
-51.849361 46.750942 -2.8442993 63 13
-45.552898 55.142311 -2.4976871 42 14
-2.8674939 3.1646235 -1.9913775 8 0
-5.1814251 5.1850419 -2.0520077 18 1
-7.037221 7.7664175 -2.0961018 29 2
-10.166753 10.173849 -2.2376568 10 3
-12.237366 13.505401 -2.3197999 16 4
-14.789611 14.799934 -2.2537503 19 5
-14.223683 17.32852 -2.0927289 16 6
-21.602615 21.617695 -2.1370595 19 8
-17.301085 19.093821 -2.1034346 14 7
-24.592762 22.314995 -2.1282513 15 9
-24.256214 29.551016 -2.2264922 23 10
-41.26416 41.292965 -2.7192788 63 12
-36.217304 39.970139 -2.8267698 48 11
-51.660793 46.875999 -2.8420198 63 13
-45.298271 55.186268 -2.4932201 42 14
-2.8564296 3.1746137 -1.9913775 8 0
-5.1524405 5.1921601 -2.0476944 15 1
-7.0100679 7.790935 -2.0961018 27 2
-10.128392 10.20647 -2.237042 10 3
-12.145027 13.49789 -2.3112137 18 4
-14.757465 14.871229 -2.2567492 16 5
-14.251171 17.486116 -2.1057408 22 6
-21.389296 21.554184 -2.1233871 19 8
-17.234327 19.154099 -2.1034346 14 7
-24.284094 29.796465 -2.238585 7 10
-40.936825 41.252403 -2.707181 63 12
-35.984051 39.992393 -2.8194427 48 11
-51.505699 47.06414 -2.8425083 63 13
-45.140713 55.387432 -2.4951744 42 14
-2.844219 3.1855583 -1.9913775 9 0
-5.1270609 5.2064166 -2.0455379 16 1
-6.9174056 7.7475743 -2.0772746 27 2
-10.094673 10.250917 -2.2382717 10 3
-12.011185 13.452666 -2.2955563 16 4
-14.633286 14.859777 -2.2464681 19 5
-14.153874 17.503548 -2.1012797 16 6
-21.373573 21.704391 -2.1300836 19 8
-17.128792 19.184446 -2.099529 14 7
-24.4667 22.529823 -2.1315773 15 9
-24.403019 30.178267 -2.2602129 15 10
-40.584679 41.212841 -2.6943383 63 12
-35.779675 40.073654 -2.8154652 48 11
-51.274628 47.215534 -2.83974 63 13
-44.960384 55.600765 -2.4969893 42 14
-2.833082 3.195467 -1.9913775 8 0
-5.1115489 5.227036 -2.0466163 16 1
-6.9215441 7.8068919 -2.086688 28 2
-10.036723 10.263486 -2.2333524 10 3
-11.945726 13.473728 -2.2920208 19 4
-14.395026 14.720259 -2.2177658 19 5
-14.174972 17.655331 -2.1135483 22 6
-21.928186 22.423618 -2.1931436 19 8
-16.953285 19.121811 -2.0861852 14 7
-23.266855 21.575533 -2.0335941 14 9
-24.007526 29.902058 -2.2332363 23 10
-40.502033 41.41711 -2.6984332 63 12
-35.605125 40.159447 -2.8127439 48 11
-49.764362 46.146873 -2.7650015 63 13
-44.693459 55.666973 -2.4929409 42 14
-2.8195155 3.2026153 -1.9896868 9 0
-5.0825386 5.2337918 -2.0423028 16 1
-6.8527827 7.7839003 -2.0741365 29 2
-9.9760551 10.272936 -2.2278183 10 3
-11.890759 13.506408 -2.2905056 13 4
-14.290917 14.716206 -2.2096267 13 5
-14.155462 17.757645 -2.1198685 23 6
-21.596815 22.239521 -2.1677523 19 8
-16.87063 19.162914 -2.0842326 14 7
-24.273808 22.667383 -2.1285071 30 9
-40.407322 41.609818 -2.7017832 63 12
-35.353874 40.157558 -2.8039515 48 11
-49.503658 46.227539 -2.7594655 63 13
-43.985558 55.178692 -2.4641836 42 14
-2.8118265 3.2141864 -1.9913775 8 0
-5.0607204 5.2441912 -2.0401464 16 1
-6.7688942 7.737494 -2.0560937 28 2
-9.938241 10.298541 -2.2265885 10 3
-11.887455 13.588498 -2.2980816 17 4
-14.471066 14.995698 -2.2447543 22 5
-14.154001 17.870716 -2.1280477 20 6
-21.039162 21.801914 -2.1186435 38 8
-16.799839 19.203823 -2.0829306 14 7
-24.246101 22.784538 -2.1323445 15 9
-23.754133 29.991758 -2.2281201 15 10
-40.309689 41.771072 -2.7040167 63 12
-35.138107 40.166218 -2.7968338 48 11
-49.113529 46.15295 -2.7457879 63 13
-44.08252 55.658199 -2.4793999 42 14
-2.7958345 3.2185085 -1.9879963 8 0
-5.0450487 5.264606 -2.0412247 20 1
-6.7958612 7.8232589 -2.0725677 26 2
-9.8940268 10.324609 -2.2247436 10 3
-11.868573 13.662863 -2.3036377 19 4
-14.421383 15.048992 -2.2451828 22 5
-14.121075 17.957582 -2.1325088 20 6
-21.065081 21.981819 -2.1289678 19 8
-16.675184 19.196136 -2.0757706 14 7
-25.929253 24.537228 -2.2878895 16 9
-40.100044 41.845173 -2.6997359 63 12
-34.937435 40.219273 -2.7920189 48 11
-48.905678 46.280151 -2.7431824 63 13
-43.917614 55.849445 -2.481075 42 14
-2.7869515 3.2309928 -1.9896868 9 0
-5.0186763 5.2738128 -2.0379899 17 1
-6.7582655 7.8350511 -2.0694296 24 2
-9.8688288 10.370534 -2.2272034 8 3
-11.797485 13.677163 -2.2990918 19 4
-14.363286 15.093476 -2.2443259 16 5
-14.05586 18.003624 -2.1321371 20 6
-21.741932 22.847235 -2.2054207 39 8
-16.532566 19.166677 -2.0663323 16 7
-26.898226 25.632732 -2.3812673 16 9
-22.863489 29.284985 -2.163702 15 10
-39.738899 41.759117 -2.6852181 63 12
-34.778576 40.319801 -2.7905536 48 11
-44.036404 41.964607 -2.4782593 63 13
-43.747017 56.033909 -2.482471 42 14
-2.775656 3.2407012 -1.9896868 8 0
-5.002882 5.2940979 -2.039068 18 1
-6.6977053 7.8198671 -2.0592318 24 2
-9.8352833 10.407791 -2.2278183 12 3
-11.739347 13.706205 -2.2970717 17 4
-14.337827 15.172426 -2.2486098 16 5
-14.017329 18.084055 -2.135855 20 6
-22.103292 23.389917 -2.2503438 20 8
-16.418879 19.169765 -2.0604742 16 7
-23.804571 22.843712 -2.1144364 15 9
-22.746443 29.345671 -2.1623065 7 10
-39.422737 41.717518 -2.6736784 63 12
-34.762344 40.586575 -2.800602 48 11
-48.189217 46.244083 -2.7210376 63 13
-43.014809 55.49432 -2.4518991 42 14
-2.759629 3.2448483 -1.986306 9 0
-4.9738264 5.3002949 -2.034755 19 1
-6.5992146 7.7595396 -2.0372665 26 2
-9.7691383 10.410357 -2.2210543 11 3
-11.565464 13.598993 -2.2723229 17 4
-13.144495 14.007263 -2.0691152 8 5
-14.0707 18.284382 -2.1537001 20 6
-21.267885 22.663851 -2.1733327 19 8
-16.375101 19.254299 -2.0634031 16 7
-22.961126 22.188803 -2.0463858 14 9
-22.407629 29.117929 -2.1397486 22 10
-38.948757 41.505245 -2.6513436 63 12
-34.641151 40.732025 -2.8022766 48 11
-47.883793 46.273163 -2.7128963 63 13
-43.381554 56.37281 -2.4840066 42 14
-2.7459474 3.2516906 -1.9846154 10 0
-4.9474182 5.3091698 -2.0315199 18 1
-6.5442538 7.7495623 -2.0286374 32 2
-9.8620806 10.583189 -2.2505698 8 3
-11.58705 13.721131 -2.28596 15 4
-13.990249 15.013206 -2.2104833 26 5
-13.968109 18.282745 -2.1477518 20 6
-21.243055 22.796333 -2.1789134 19 8
-16.32066 19.326569 -2.0650306 16 7
-23.173756 30.331944 -2.2230036 23 10
-38.977985 41.82803 -2.6632555 63 12
-34.552891 40.916779 -2.8066728 48 11
-47.6647 46.38427 -2.7096398 63 13
-43.00008 56.282459 -2.473397 42 14
-2.7322507 3.2584786 -1.9829251 8 0
-4.926239 5.3235803 -2.0304418 18 1
-6.5096021 7.7633429 -2.026284 49 2
-9.6291132 10.40578 -2.2056813 8 3
-11.55693 13.782779 -2.2894955 17 4
-13.948561 15.073626 -2.2121968 22 5
-13.572062 17.893497 -2.0964465 13 6
-21.282595 22.999208 -2.1911902 19 8
-16.166002 19.279554 -2.0539649 16 7
-23.16909 30.546284 -2.2327712 23 10
-38.565784 41.67643 -2.6450152 63 12
-34.343121 40.957561 -2.80123 48 11
-47.479664 46.527996 -2.7083371 63 13
-42.914482 56.578735 -2.4798186 42 14
-2.7231793 3.270782 -1.9846154 10 0
-4.9050202 5.3379073 -2.0293634 20 1
-6.4297605 7.7227173 -2.00981 41 2
-9.7612143 10.622679 -2.2444208 10 3
-11.361494 13.646172 -2.2602015 17 4
-13.285025 14.457479 -2.1149528 9 5
-13.765864 18.281191 -2.1362267 20 6
-18.947783 20.619999 -1.9582037 9 8
-16.034836 19.259272 -2.0458283 14 7
-23.949276 23.633688 -2.1563928 15 9
-22.925406 30.445143 -2.2195156 31 10
-26.056767 28.356377 -1.7938679 28 12
-34.215282 41.095615 -2.8024862 48 11
-47.365322 46.741173 -2.7111053 63 13
-42.521946 56.469521 -2.4685111 42 14
-2.7048166 3.2718842 -1.9795439 10 0
-4.881166 5.3493047 -2.0272069 20 1
-6.482738 7.8418508 -2.0349131 23 2
-9.7214127 10.653766 -2.2438059 10 3
-11.374472 13.759142 -2.2723229 16 4
-13.867118 15.197074 -2.2160523 19 5
-13.654276 18.265327 -2.1287911 20 6
-21.312481 23.356501 -2.2110012 19 8
-16.028479 19.388866 -2.0536394 14 7
-26.635834 26.468985 -2.4065945 16 9
-22.637285 30.2819 -2.2018411 15 10
-38.158092 41.817726 -2.6370118 63 12
-34.114899 41.267124 -2.8060448 48 11
-47.278427 46.982269 -2.7155013 63 13
-42.276707 56.553558 -2.4657192 42 14
-2.695678 3.2841091 -1.9812346 13 0
-4.8572893 5.3606033 -2.0250502 18 1
-6.3383603 7.721941 -1.9980432 36 2
-9.4745016 10.456253 -2.1952279 8 3
-11.25336 13.709821 -2.2576759 16 4
-12.991498 14.337682 -2.0841088 10 5
-13.559575 18.271307 -2.1239581 23 6
-22.200722 24.501171 -2.3120086 20 8
-16.039104 19.540232 -2.0637286 16 7
-26.44451 26.462982 -2.3976405 16 9
-22.050728 29.712997 -2.1548648 15 10
-38.0709 42.015823 -2.6411066 63 12
-34.018776 41.44463 -2.8100224 48 11
-47.167805 47.200752 -2.7185953 63 13
-41.995644 56.588448 -2.4608333 42 14
-2.6819084 3.2906876 -1.9795439 11 0
-4.8333955 5.3717971 -2.0228934 20 1
-6.3188033 7.7531385 -2.0003965 21 2
-9.6520853 10.727251 -2.2450356 10 3
-11.212959 13.758243 -2.259191 19 4
-13.632999 15.151608 -2.1954899 15 5
-13.486269 18.305696 -2.1224709 17 6
-22.026993 24.480625 -2.3028007 20 8
-15.940582 19.559011 -2.0598233 16 7
-26.287312 26.489952 -2.3917563 16 9
-22.458487 30.484211 -2.205097 15 10
-37.956085 42.18409 -2.6433401 63 12
-33.677074 41.321594 -2.7936935 48 11
-47.002773 47.365101 -2.7185953 63 13
-41.755196 56.676754 -2.4583206 42 14
-2.6704047 3.30003 -1.9795439 11 0
-4.8120475 5.3857656 -2.0218153 21 1
-6.5162263 8.0526161 -2.0717831 28 2
-9.5329428 10.66951 -2.2259734 11 3
-11.252226 13.905265 -2.2768688 11 4
-13.709862 15.344423 -2.2164807 16 5
-13.410528 18.336594 -2.1206121 20 6
-21.946716 24.56332 -2.3033588 20 8
-15.834588 19.56805 -2.0549412 16 7
-26.208685 26.595774 -2.3930354 16 9
-37.419914 41.881313 -2.6161659 63 12
-33.61554 41.541382 -2.800602 48 11
-46.47805 47.164505 -2.6977532 63 13
-41.439095 56.660843 -2.4513407 42 14
-2.6565993 3.3065052 -1.9778537 11 0
-4.7881069 5.3967667 -2.0196588 18 1
-6.5298433 8.1272926 -2.0851192 26 2
-9.5481052 10.761851 -2.2382717 11 3
-11.198649 13.938267 -2.2758584 16 4
-13.637744 15.371362 -2.2134819 19 5
-13.454076 18.531542 -2.1377139 14 6
-20.753901 23.392118 -2.1867259 19 8
-15.516489 19.312414 -2.0223954 14 7
-26.076609 26.64715 -2.3894539 16 9
-22.463301 30.940781 -2.2267246 15 10
-37.276154 42.014664 -2.6163521 63 12
